# .PCD v0.7 - Point Cloud Data file format
VERSION 0.7
FIELDS x y z rgb
SIZE 4 4 4 4
TYPE F F F U
COUNT 1 1 1 1
WIDTH 1281
HEIGHT 1
VIEWPOINT 0 0 0 1 0 0 0
POINTS 1281
DATA ascii
147.40001 -5.8499999 6.8500004 16711680
148.35001 -5.8499999 6.8500004 16711680
160.55 -5.4499998 6.0500002 16711680
161.53505 -5.0634308 6.4813423 14549024
162.52751 -5.2007022 6.4908447 12322618
163.4269 -5.1423063 6.4530773 15400979
164.3257 -5.2040553 6.495945 14876699
165.3 -5.8499999 6.2500005 16711680
166.25 -5.75 6.2500005 16711680
167.35001 -5.9499998 6.4500003 16711680
168.65001 -5.75 6.3500004 65280
169.45001 -5.1500001 6.4500003 16711680
171.67502 -5.5625 6.8000002 14614559
172.66667 -5.5500002 6.9000006 5592405
173.15001 -5.5250001 6.9500003 65280
176.35001 -5.0499997 6.9500003 16711680
206.35001 -5.4499998 6.6500001 65280
103.95 -4.6499996 6.4000006 8355584
104.54388 -4.6018209 6.4439282 16123904
105.45669 -4.6714878 6.4465637 16189184
106.13663 -4.7816672 6.3900003 16515584
160.91669 -4.6166663 6.0500007 16711680
161.2197 -4.5155392 6.5033793 16056329
163.15001 -4.9499998 6.2500005 16711680
164.85001 -4.9499998 6.8500004 16711680
167.95001 -4.9499998 6.3500004 65280
172.65001 -4.9499998 6.9500003 32639
173.25 -4.8499999 6.9500003 255
190.55 -4.1500001 6.1500001 16711680
203.85001 -4.1500001 6.7500005 65280
104.4 -3.95 6.0749998 16711680
105.20001 -3.8500001 6.0500002 16711680
160.75 -3.3500001 6.0500002 16711680
161.23322 -3.5132 6.5291991 15008534
160.80716 -2.2071433 6.0500002 7929989
161.22217 -2.5077322 6.5592799 14484254
160.59 -1.3939999 6.1140003 8658523
161.25 -1.5746753 6.5577922 14876953
160.42775 -0.46111113 6.1277776 9701219
161.29997 -0.48939401 6.5136375 13893674
159.48334 0.78333342 6.0500007 5570730
160.38791 0.50172418 6.1568966 7080073
161.30728 0.51617652 6.5544128 14942234
159.28751 1.4875 6.0499997 2031839
160.45624 1.425 6.1499991 7277443
161.27602 1.5195656 6.5380445 14614559
158.48335 2.6166668 6.0833335 255
159.26819 2.4772727 6.068182 6119
160.64062 2.546875 6.1437502 3606463
161.27362 2.4768822 6.5155916 14877974
158.45001 3.4166667 6.0999999 255
159.15001 3.51 6.0499997 255
160.60139 3.4757144 6.1557131 5244839
161.29759 3.5461178 6.5150495 15467533
110.61668 4.9500003 6.0500007 16711680
111.85001 4.9500003 6.0500002 16711680
112.47222 4.9500003 6.1166673 16711680
113.40556 4.9500003 6.1611114 16711680
114.4875 4.9500003 6.1624999 14622464
115.51251 4.9500003 6.2000003 16711680
116.55 4.9500003 6.1700001 16711680
117.41364 4.9500008 6.2409096 16711680
118.49001 4.9500003 6.3500009 16711680
119.51154 4.9500008 6.2576928 15405824
120.53889 4.9500003 6.3722224 16711680
121.57223 4.9500003 6.3722229 16711680
122.34 4.9500003 6.3800001 14165504
144.05 4.9500003 6.4500003 16711680
146.25 4.7500005 6.0500002 16711680
147.60001 4.8500004 6.0500002 8355584
148.40001 4.7750006 6.0999999 12533504
157.95001 4.6500001 6.1500001 255
158.29999 4.7000003 6.0750003 255
159.22273 4.4954553 6.0772729 255
160.58792 4.5500002 6.1879315 4260029
161.26711 4.5269241 6.5884633 15925259
89.650414 5.6587129 6.4885325 16646144
90.495155 5.4643397 6.5023193 16646144
91.526741 5.5315828 6.4747648 16646144
92.513618 5.7127733 6.4538965 16515584
93.496964 5.6950412 6.428246 16515584
94.51931 5.5716076 6.4524407 16580864
95.494255 5.4204454 6.439692 16711680
96.510712 5.5026913 6.4467072 16646144
97.503189 5.650291 6.4575591 16646144
98.48877 5.6234484 6.4570637 16580864
99.483093 5.454874 6.455843 16450304
100.49104 5.3845448 6.4518185 16580864
101.39351 5.4917345 6.4495645 16058624
109.95007 5.5404105 6.4089031 16123648
110.50727 5.4031763 6.561904 15601664
111.49685 5.2311492 6.5677133 16254464
112.46391 5.2125049 6.5548611 16646144
113.51157 5.2244015 6.5412011 16646144
114.50497 5.2135682 6.525969 16711680
115.50166 5.2218156 6.5580535 16711680
116.49837 5.1803274 6.5098357 16646144
117.51332 5.212502 6.4691663 16711680
118.50479 5.2904139 6.4020543 16711680
119.5284 5.3586464 6.3839502 16646144
120.51101 5.4251471 6.3878555 16580864
121.49916 5.374876 6.3791018 16580864
122.33423 5.395453 6.545867 16515584
131.60643 5.5660682 6.5619035 14100224
132.48317 5.6674085 6.5651665 16319744
133.48904 5.6631794 6.5840669 16580864
134.51343 5.6848483 6.5917115 16711680
135.51132 5.7106009 6.5857568 16646144
136.52298 5.7160311 6.5984259 16646144
137.49965 5.7520633 6.5837927 16711680
138.48988 5.7221456 6.5860753 16646144
139.50983 5.762495 6.5618415 16711680
140.49997 5.7647381 6.5314112 16711680
141.34659 5.7670484 6.4988647 16711680
142.51898 5.791934 6.500968 16646144
143.26927 5.7813268 6.5162654 15797504
146.61 5.3499999 6.0500002 16711680
147.65001 5.5214291 6.0928569 7180544
148.43335 5.5 6.1333332 11162880
157.95001 5.5 6.0500002 255
158.57858 5.5642867 6.1071439 255
159.44002 5.5400009 6.1100001 1638629
160.53891 5.4766669 6.2077775 7012499
161.24706 5.6088252 6.5725489 15728654
162.31157 5.465385 6.4500003 10223714
163.11667 5.3833342 6.5166664 5570730
164.65001 5.4500003 6.8500004 16711680
89.479424 6.4952507 6.5260177 16711680
101.50073 6.4594817 6.5040274 16058624
109.95008 6.5025649 6.3987164 16450304
110.37424 6.4983363 6.5591674 15405824
122.29246 6.4876242 6.5054455 16580864
131.74643 6.4789777 6.5488644 15993344
132.05002 6.4700007 6.0700002 16711680
141.63037 6.0499988 6.6053586 16711680
142.17001 6.0500011 6.5580006 16711680
143.51204 6.5401411 6.5443664 16711680
146.875 6.6750002 6.0500002 255
147.49547 6.4136376 6.0499997 1528214
148.45 6.5500002 6.1650004 4138649
157.89287 6.5785718 6.0500002 255
158.58334 6.5100002 6.1300011 255
159.79446 6.6833339 6.1722231 5577869
160.49443 6.498148 6.2500005 6488219
161.22864 6.5063124 6.5888357 15728654
7.9500003 7.9500003 6.5500002 16711680
9.3500004 7.75 6.1500006 16711680
18.25 7.9000006 6.1750002 16711680
89.475616 7.480979 6.5353975 16580864
101.50455 7.4939175 6.513494 16646144
109.95008 7.5092115 6.3947358 16711680
110.36974 7.4263139 6.6236849 16711680
122.28902 7.4847827 6.5043483 16646144
131.78503 7.4976792 6.5559597 16580864
132.05002 7.5136366 6.0590906 16711680
143.53772 7.5176916 6.5038466 16711680
144.95001 7.4500003 6.0500002 16711680
145.39999 7.8000002 6.0500002 16711680
147.5 7.3000002 6.0500002 32639
148.41365 7.4818187 6.1681824 2642309
157.85001 7.3642859 6.0500002 255
158.50836 7.4666672 6.125001 255
159.81155 7.534616 6.1807699 255
160.4731 7.4884615 6.2538462 8323199
161.22649 7.4911771 6.5745082 15533324
6.5500002 8.25 6.1500001 16711680
7.7048378 8.4370975 6.5403228 16123904
8.4904776 8.4642859 6.5880947 15666944
9.2275486 8.6989813 6.6112242 14296064
10.11 8.710001 6.1900005 16711680
17.887499 8.65625 6.2062507 16711680
18.585558 8.6366663 6.292222 16711680
19.210716 8.750001 6.5142856 16711680
73.572861 8.9252434 6.4823804 16646144
74.512337 8.9181118 6.4456515 16646144
75.495468 8.9249983 6.4431815 16646144
76.508949 8.9108868 6.4358978 16711680
77.318123 8.8906612 6.4005504 16711680
79.300003 8.9500008 6.6500006 16711680
89.724594 8.5185413 6.5157266 16711680
101.5295 8.6329794 6.5471635 16646144
102.50595 8.6512499 6.533648 16646144
103.47038 8.6112642 6.478168 16058624
109.95008 8.4918928 6.4027019 16711680
110.6343 8.5357151 6.6114306 16711680
122.46565 8.5364218 6.449285 16711680
123.54856 8.5751705 6.5384893 15927808
124.32497 8.4749966 6.5865397 13643264
131.81406 8.4902945 6.5672669 16319744
132.0667 8.5333319 6.1055565 14818304
143.60559 8.6142035 6.5722227 16711680
144.47917 8.8958368 6.5500011 16711680
145.34241 8.8727312 6.499999 16711680
146.35001 8.7000008 6.1333332 16711680
147.65001 8.9000006 6.2500005 16711680
148.46001 8.3899994 6.2100005 11684864
157.89 8.5700006 6.0500002 13260
158.53751 8.562501 6.1500006 255
159.65866 8.5717382 6.2239137 4328369
160.59366 8.6089745 6.3269238 14356499
161.21733 8.5244884 6.6153059 15270418
6.5750003 9.5750008 6.3000002 16711680
8.75 9.1500006 6.2500005 16711680
9.4817057 9.4304876 6.5085363 14883584
10.2125 9.250001 6.4625006 16711680
16.85 9.5500002 6.0500002 16711680
17.527779 9.5277777 6.4944448 16711680
18.69532 9.4828119 6.3593745 16450304
19.397375 9.5697365 6.5407901 16711680
20.083332 9.9166679 6.1833339 16711680
65.847145 9.5384617 6.5067306 16058624
66.440178 9.585844 6.4644504 16319744
67.554855 9.5494633 6.4793477 16254464
68.414474 9.5168314 6.4794407 16515584
69.532318 9.4163885 6.4551735 16580864
70.478699 9.246417 6.468729 16646144
71.497986 9.2746754 6.4603171 16646144
72.460686 9.2389383 6.4855742 16711680
73.402168 9.3330927 6.4948506 16711680
74.431335 9.411334 6.598 16711680
75.518898 9.5055552 6.6833334 16319744
76.499992 9.3859987 6.7100005 16711680
77.589172 9.2196054 6.5090652 16711680
78.504265 9.1864548 6.5139823 16711680
79.539146 9.3325768 6.4820552 16646144
80.54599 9.4862289 6.4873199 16711680
81.495224 9.5605307 6.5070171 16711680
82.538445 9.5052366 6.4994593 16580864
83.478188 9.547142 6.5116315 16646144
84.536758 9.5208359 6.5090904 16450304
85.134224 9.3447371 6.4210529 16711680
89.540955 9.4636307 6.5314398 16646144
103.58556 9.4750032 6.5769758 16319744
109.95007 9.5030289 6.401515 16711680
110.39096 9.4681807 6.6409116 16711680
124.26748 9.5034885 6.4813943 16711680
131.84772 9.4917278 6.5688982 16646144
132.05003 9.514287 6.0857153 16711680
145.67072 9.5518866 6.5330191 16058624
146.25 9.4900007 6.0900002 16711680
147.60001 9.5166674 6.1833339 16711680
148.3643 9.5357151 6.257143 15471104
156.80002 9.8500004 6.0500002 255
157.86667 9.4000015 6.0833335 2752724
158.43182 9.4136372 6.1772742 255
159.46178 9.4382362 6.2264709 2949330
160.50624 9.4937496 6.4031248 13045543
161.32971 9.4688387 6.5717387 14747414
8.4500008 10.3 6.2000003 16711680
9.6174726 10.468074 6.4054208 16646144
10.183334 10.433334 6.416667 16711680
16.616667 10.316668 6.25 16711680
17.799999 10.275 6.4250002 16711680
18.477777 10.366667 6.5499997 16711680
19.561623 10.522093 6.5220923 16515584
20.129999 10.330001 6.1100001 16711680
65.846565 10.512791 6.4953499 16711680
66.128433 10.551962 6.440197 16711680
84.751999 10.500001 6.4859996 16189184
85.067657 10.506864 6.5205894 15862784
89.482635 10.474255 6.5495048 16711680
103.66162 10.489534 6.5585265 16646144
109.95007 10.511903 6.3801589 16711680
110.36295 10.475925 6.6425943 16711680
124.23112 10.471737 6.4702892 16450304
131.83458 10.486429 6.5562019 16515584
132.06252 10.43125 6.1875005 15666944
145.67546 10.511817 6.5390906 16646144
146.25 10.5625 6.1625004 16711680
147.45001 10.700001 6.2500005 16711680
148.48752 10.512501 6.25 16711680
157.66667 10.525 6.083334 255
158.60001 10.5625 6.1750002 255
159.35588 10.467647 6.2441177 2949330
160.45399 10.470001 6.4459996 10685009
161.34831 10.455264 6.5903497 14352419
8.5500011 11.870001 6.6700006 16711680
9.6264725 11.338235 6.1558828 16711680
15.950001 11.25 6.3500004 16711680
16.099998 11.225 6.3750005 16711680
18.535297 11.505883 6.6117644 16711680
19.406483 11.497224 6.458333 16580864
20.049999 11.450001 6.3500004 16711680
65.845001 11.495459 6.5136375 16711680
66.125389 11.494262 6.4663925 16646144
84.757851 11.465689 6.4911766 16385280
85.074524 11.51415 6.5141516 16711680
89.627174 11.472839 6.5224414 16711680
103.70054 11.426842 6.4931574 16711680
109.95006 11.488334 6.3816662 16711680
110.55002 11.507693 6.6346164 16711680
124.16881 11.493397 6.4273577 16711680
131.625 11.304168 6.6750007 15993344
132.05 11.05 6.1000004 16711680
145.68045 11.478261 6.5695648 16711680
146.40002 11.725 6.1000004 16711680
147.68335 11.316668 6.25 16711680
148.52144 11.578572 6.3500009 11945984
157.75002 11.491668 6.1000004 255
158.60457 11.495456 6.2045465 1507559
159.45003 11.495456 6.2863641 6029474
160.49615 11.534616 6.4615397 10553683
161.3465 11.49035 6.6377192 15205393
8.8100004 12.170001 6.5500002 16711680
18.654346 12.280436 6.6369572 15209984
19.326189 12.116668 6.3833337 16711680
65.847977 12.483339 6.499999 16450304
66.146828 12.413493 6.5119052 16711680
84.755272 12.413157 6.5552626 16711680
85.064651 12.469509 6.5158534 16646144
89.735603 12.485847 6.5078607 16646144
103.61772 12.515627 6.5083327 16580864
109.95006 12.46667 6.4000006 16711680
110.66852 12.468519 6.627779 16711680
124.16846 12.492591 6.437036 16711680
131.34999 12.538889 6.8500009 14818304
134.46667 12.900001 6.3000002 16711680
145.68469 12.494895 6.5806122 16711680
146.32144 12.478573 6.1928577 14296064
147.55 12.150001 6.2500005 16711680
148.53574 12.564286 6.3357143 15471104
156.85001 12.950001 6.0500002 255
157.55 12.491667 6.0916672 1376489
158.62 12.420001 6.2300005 255
159.58334 12.483335 6.2333336 5570730
160.44 12.589999 6.400001 15007769
161.2674 12.448552 6.6514506 14353949
65.844795 13.49527 6.5268431 16711680
66.239288 13.533331 6.5226202 16711680
84.699997 13.569047 6.5 16254464
85.070869 13.535415 6.5 16711680
89.732376 13.47269 6.5113435 16711680
103.62897 13.48684 6.5131588 16515584
109.95003 13.476417 6.4084902 16711680
110.66113 13.453704 6.6203704 16711680
124.17122 13.51383 6.4265947 16646144
131.34999 13.516667 6.8500004 14818304
134.47995 13.521638 6.4261198 16515584
145.69287 13.464286 6.5833335 16711680
146.31667 13.538889 6.227778 14818304
147.70001 13.85 6.3500004 16711680
148.59001 13.63 6.2700005 16711680
156.8 13.5 6.0500002 255
157.45003 13.440908 6.1227274 255
158.52501 13.45 6.2500005 255
159.58334 13.450001 6.333334 2763434
160.6577 13.526924 6.4500003 12845114
161.28731 13.490679 6.6449165 14877719
65.839279 14.476477 6.5284319 16711680
66.133301 14.474242 6.4787884 16580864
84.765152 14.525757 6.4863644 16450304
85.075012 14.553123 6.5093741 16711680
89.744461 14.486669 6.5211124 16711680
103.59831 14.46798 6.5623603 16711680
109.95 14.51591 6.3795457 16711680
110.67799 14.417999 6.6499987 16711680
124.22294 14.506757 6.4500003 16711680
131.35001 14.510001 6.8499999 16711680
134.48372 14.50281 6.425282 15928064
145.70854 14.44512 6.5841465 16319744
146.51366 14.486364 6.2863641 16711680
147.5 14.662499 6.3375006 16711680
148.56999 14.35 6.3300004 6710835
156.54001 14.42 6.0599995 1638629
157.80002 14.625 6.1500006 255
158.4389 14.516667 6.2944446 1835234
159.36113 14.494446 6.3611116 3670214
160.64999 14.414706 6.4911766 12779580
161.27132 14.484424 6.669672 12849193
65.839165 15.498517 6.5371294 16711680
66.138489 15.518853 6.4713111 16646144
84.770844 15.504165 6.4208331 16711680
85.077606 15.456896 6.5155177 16711680
89.73336 15.463638 6.5106072 16711680
103.58601 15.542003 6.5726666 16711680
109.94695 15.504547 6.4106059 16711680
110.6326 15.463045 6.5586953 16711680
124.19998 15.500001 6.4653864 16711680
131.37 15.45 6.8700004 16711680
134.47659 15.490423 6.4478726 15601664
145.71135 15.477273 6.5977278 16711680
146.39999 15.15 6.4000006 16711680
147.68335 15.5 6.4666672 16711680
148.37503 15.508334 6.4083338 13904384
155.55002 15.6 6.0500002 255
156.25 15.516666 6.0833335 255
157.7 15.459999 6.1900001 255
158.63573 15.507144 6.3357143 4718774
159.65001 15.45 6.5099998 6710835
160.56906 15.450001 6.5261912 9115739
161.2794 15.441176 6.7029414 13307428
65.841263 16.495049 6.520329 16711680
66.211929 16.464283 6.5476198 16711680
84.764297 16.407143 6.6357141 16711680
85.089294 16.414286 6.4178567 16711680
89.696785 16.467022 6.4755311 16646144
103.64999 16.500822 6.4942613 16646144
109.94997 16.474239 6.3863645 16711680
110.69705 16.538233 6.6558824 16711680
124.15002 16.523335 6.4700007 16123904
131.35001 16.450001 6.9000006 16711680
134.48952 16.459211 6.4421062 15666944
145.71854 16.51 6.5814285 16711680
146.50002 16.4625 6.3375006 16711680
147.57001 16.550001 6.4500008 16711680
148.60001 16.549999 6.2750006 16711680
155.70001 16.533335 6.0500002 255
156.75 16.424999 6.0500002 255
157.61252 16.674999 6.2375002 255
158.57501 16.424999 6.3750005 4128959
159.625 16.5375 6.3750005 2047903
160.53891 16.427778 6.5500016 13897244
161.24615 16.496153 6.7500014 11020079
65.838951 17.502226 6.5277781 16711680
66.208145 17.45727 6.5300002 16646144
84.721436 17.559525 6.4595237 16711680
85.096878 17.462502 6.4906254 16711680
89.726006 17.483999 6.4819994 16711680
103.62144 17.498575 6.5042853 16450304
109.94997 17.434614 6.3884625 16711680
110.5794 17.485294 6.5970583 15732480
124.15002 17.485292 6.4499998 16711680
131.88843 17.61154 6.6230769 16711680
132.47498 17.371239 6.4762506 15928064
133.48651 17.354753 6.5246043 16515584
134.34789 17.284035 6.5138302 16646144
145.72188 17.4625 6.6624999 16189184
146.4389 17.316668 6.3388891 12990464
147.45001 17.5 6.2000003 16711680
148.50716 17.264288 6.4071431 14286884
154.85001 17.783333 6.0500007 255
155.39287 17.450001 6.0500002 255
156.43001 17.59 6.1300006 255
157.43573 17.564285 6.2214293 255
158.14999 17.349998 6.3500004 255
159.52855 17.471428 6.4214292 4732543
160.59615 17.534618 6.7141018 13117453
161.2 17.336365 6.7499995 9321778
25.867397 18.763042 6.4934778 16711680
26.50495 18.783588 6.4881682 16711680
27.455509 18.818501 6.4996042 16711680
28.493965 18.812632 6.4631858 16515584
29.499994 18.799994 6.4539237 16711680
30.497784 18.797775 6.4300003 16711680
31.493324 18.794439 6.457778 16711680
32.511848 18.790201 6.4716487 16646144
33.507591 18.793427 6.4732323 16711680
34.502052 18.79081 6.4775515 16711680
35.589851 18.699221 6.4718757 16711680
36.508114 18.362808 6.4970083 16711680
37.483036 18.361305 6.4792466 16646144
38.537018 18.393894 6.5109763 16450304
39.368004 18.711763 6.4795089 16580864
40.502899 18.814411 6.5086532 16711680
41.49258 18.820358 6.5120368 16711680
42.497662 18.827557 6.5154214 16646144
43.52322 18.826777 6.496429 16711680
44.449299 18.518978 6.5058618 16711680
45.492355 18.362597 6.4815316 16711680
46.507126 18.359806 6.5044656 16515584
47.535904 18.615225 6.5092382 16711680
48.484432 18.843437 6.5336065 16646144
49.498726 18.852472 6.483058 16646144
50.493221 18.849144 6.5220351 16711680
51.501568 18.853113 6.5117183 16711680
52.498768 18.844864 6.5286331 16580864
53.473209 18.847311 6.5642872 16580864
54.506069 18.849985 6.5752034 16515584
55.471752 18.841124 6.5895162 16515584
56.479263 18.841055 6.6182914 16646144
57.493858 18.842094 6.6184225 16711680
58.458649 18.789997 6.485333 16711680
59.450008 18.774345 6.5160861 16646144
65.839577 18.502327 6.5197678 16711680
66.133575 18.490978 6.5532804 16646144
84.770012 18.450001 6.4800005 16711680
85.116684 18.494444 6.4092598 16711680
89.755463 18.524546 6.553637 16646144
103.64334 18.541109 6.5411119 16515584
109.94997 18.47963 6.3944449 16711680
110.61154 18.626923 6.5423074 16711680
124.15589 18.402943 6.4147053 16711680
131.85204 18.587997 6.5820012 16711680
132.05002 18.542309 6.2807703 16711680
145.75 18.412067 6.5706897 16711680
146.38335 18.594446 6.3055558 16711680
147.49001 18.389997 6.3099999 16711680
148.47 18.43 6.4200006 16711680
153.95001 18.949999 6.0500002 16711680
154.35002 18.392859 6.0500002 255
155.57001 18.609999 6.0500002 255
156.6125 18.4375 6.1625004 255
157.85001 18.5 6.3000002 255
158.67857 18.478573 6.4500003 2359514
159.55 18.449999 6.5100007 3381555
160.49481 18.425861 6.6948276 9982484
25.850004 19.540909 6.1500001 16711680
26.85 19.15 6.6500001 16711680
27.6875 19.177502 6.587501 16711680
28.526272 19.217798 6.5550852 16385024
29.432451 19.223686 6.5342107 16711680
30.513491 19.221432 6.5341277 16711680
31.502237 19.224627 6.5097013 16711680
32.49828 19.234484 6.468966 16711680
33.456787 19.23983 6.512713 16123904
34.48333 19.245556 6.4211116 16711680
35.216667 19.250002 6.3166676 16711680
39.526917 19.200001 6.4442315 16711680
40.507442 19.243616 6.439362 16646144
41.492596 19.240742 6.4074087 16711680
42.533726 19.226746 6.4593024 16711680
43.427776 19.190742 6.3907409 16711680
44.210003 19.129999 6.1300001 16711680
47.761105 19.138885 6.3527775 16711680
48.514099 19.176933 6.3179469 16711680
49.520004 19.172506 6.3112497 16711680
50.502041 19.178774 6.3102736 16711680
51.508892 19.178898 6.3177776 16711680
52.484901 19.184916 6.3556604 16711680
53.495529 19.18751 6.3624997 16711680
54.528011 19.19001 6.3729987 16711680
55.506363 19.183643 6.3481798 16515584
56.513363 19.208422 6.3608899 16646144
57.505341 19.199589 6.3987613 16580864
58.049995 19.180769 6.3653855 16711680
59.756817 19.543182 6.5409088 16319744
65.845284 19.509531 6.4916673 16711680
66.136765 19.493399 6.5330186 16711680
84.785721 19.421429 6.5000005 16711680
85.121445 19.530954 6.5023813 16711680
89.589996 19.311544 6.4869237 16450304
103.61213 19.453033 6.5969696 16580864
109.94998 19.561766 6.3558836 16711680
110.34091 19.386364 6.7136364 16711680
124.15767 19.515387 6.5192308 16711680
131.80714 19.316668 6.5833335 16711680
132.11667 19.438889 6.3055558 16711680
145.74614 19.546156 6.5769234 16058624
146.54002 19.450001 6.3600001 15014144
147.77501 19.525 6.2750006 12517439
148.5125 19.4625 6.3875008 12517439
153.64999 19.349998 6.0500002 255
154.95001 19.85 6.0500002 255
155.60001 19.5 6.1000004 8323199
156.35001 19.364286 6.1928577 255
157.85001 19.469999 6.2300005 6684825
158.3625 19.4 6.4125004 5177519
159.59445 19.638889 6.4944448 11155484
160.50926 19.483332 6.7166662 13306154
161.42502 19.725 6.9250002 12517439
25.840912 20.34091 6.3136368 3785984
59.749996 20.607143 6.6452374 13904384
65.843719 20.482912 6.4892402 16711680
66.232872 20.552855 6.4585719 16711680
84.727783 20.65 6.6611114 16711680
85.116676 20.6 6.522223 16711680
89.538017 20.462 6.5059996 16711680
103.68544 20.485415 6.510416 16515584
109.94998 20.472221 6.3666673 16711680
110.31 20.529999 6.8100009 16711680
124.16579 20.53421 6.5026312 16711680
131.3875 20.425001 6.6625004 16711680
132.18958 20.543751 6.4958339 16711680
145.73999 20.460001 6.5750003 15014144
146.41251 20.5875 6.3750005 14622464
147.73003 20.35 6.3499999 16711680
148.42499 20.624998 6.4750004 14622464
154.375 20.450001 6.0500002 255
155.41002 20.43 6.1500001 255
157.6375 20.5 6.3125005 4128959
158.39999 20.299999 6.4000006 8323199
159.60001 20.5 6.4833345 11141205
160.29117 20.502941 6.6558828 15206158
161.35001 20.516668 6.8416672 13893674
23.843336 21.93334 6.5466666 14753024
24.466461 21.938589 6.5120249 15079424
25.372217 21.869448 6.4694452 15732224
26.25 21.849998 6.9500003 8355584
59.492111 21.576317 6.5447369 16711680
60.575813 21.931702 6.5446234 16385024
61.485355 21.922401 6.5525861 14491904
62.049999 21.889999 6.5300002 10053120
65.83609 21.503485 6.533721 16711680
66.163979 21.401999 6.5280004 16711680
84.725014 21.484999 6.4150004 16711680
85.135727 21.507141 6.4928575 16254464
89.350006 21.116667 6.5833335 16711680
103.75001 21.528788 6.3924251 15993344
109.94998 21.393749 6.3437505 16711680
110.85001 21.75 6.6500001 16711680
124.17859 21.164286 6.5214291 16711680
131.85965 21.524191 6.6145172 16711680
132.09447 21.212961 6.3722219 16711680
145.74335 21.236666 6.5633335 15601920
146.39166 21.391668 6.3666663 13904384
147.38333 21.383335 6.3833342 16711680
148.36819 21.668182 6.5772734 14426624
153.85001 21.15 6.0500002 255
154.55002 21.550001 6.0500007 255
156.81001 21.51 6.2900004 255
157.63 21.570002 6.3100004 3342540
158.77501 21.375 6.4250002 255
159.55833 21.5 6.5666671 12517439
160.51538 21.657692 6.7538466 14417954
161.3125 21.55625 6.8687501 13565999
23.736668 22.516668 6.4166679 16711680
25.57667 22.350006 6.8499999 15601920
59.661362 22.265902 6.4409089 16711680
60.14286 22.157145 6.4928575 16711680
61.75 22.383331 6.5 16711680
62.049999 22.616667 6.5999999 16711680
65.838768 22.482401 6.5345078 16711680
66.150002 22.535707 6.487143 16711680
84.766678 22.383337 6.6000004 16711680
85.144463 22.555557 6.5000005 16711680
89.569344 22.443548 6.5564513 16711680
103.75001 22.049999 6.1000004 16711680
109.94999 22.514288 6.3571439 16711680
110.40717 22.292858 6.9071436 16711680
131.82826 22.476091 6.5891309 16711680
132.05771 22.51923 6.2576923 16711680
145.82144 22.249998 6.392858 10705664
146.26669 22.583334 6.3499999 8355584
147.50999 22.43 6.3900008 13382400
148.675 22.574999 6.4250002 12533504
153.58334 22.65 6.0500007 255
154.05 22.15 6.0500002 255
155.95001 22.75 6.2500005 255
156.56668 22.349998 6.2166667 5570730
157.4875 22.400002 6.3000002 4128959
158.49547 22.668182 6.5045466 10616924
159.62271 22.586365 6.6227279 10622789
160.42223 22.427774 6.7444444 13893674
23.75 23.4 6.3875003 14622464
24.15 23.849998 6.8500004 16711680
61.807148 23.464287 6.4071436 16711680
62.049999 23.216665 6.916667 16711680
65.846184 23.484617 6.5192323 16711680
66.150017 23.48667 6.583333 16711680
84.750008 23.424999 6.4000006 16711680
85.155891 23.52059 6.4382362 16711680
89.488884 23.4 6.4555569 16711680
109.93573 23.664286 6.5071435 16711680
110.10001 23.5 6.9000006 16711680
131.86198 23.441999 6.5499992 16711680
132.05002 23.549999 6.2954545 16711680
145.60001 23.25 6.4000006 8355584
146.75 23.200001 6.4500003 65280
147.60002 23.450001 6.4833336 16711680
148.41667 23.450001 6.6166668 13904384
152.85001 23.549999 6.0500002 255
153.05 23.25 6.0500002 255
154.05 23.65 6.1500001 16711680
155.60001 23.599998 6.2250004 255
156.425 23.449999 6.3500004 255
157.60556 23.638889 6.4055562 12983324
158.47144 23.535717 6.5857153 16711680
159.41364 23.481821 6.6272736 13238324
160.48334 23.483334 6.6166668 13904384
161.10001 23.75 6.7500005 255
23.683334 24.216667 6.3166671 11162880
24.15 24.525 6.8750005 16711680
61.683334 24.65 6.6500006 16711680
65.78125 24.30625 6.5500002 16711680
66.097847 24.189127 6.5239134 16711680
84.826927 24.242306 6.5115395 16711680
85.196678 24.203331 6.4300017 16711680
89.486374 24.24091 6.6681824 15144704
109.94167 24.408333 6.4416671 16711680
110.10001 24.299999 6.9500003 16711680
131.79999 24.456249 6.7250004 15666944
132.05 24.364286 6.3071432 16711680
145.55002 24.25 6.4500003 11162880
146.5 24.65 6.6000004 16711680
147.45001 24.616667 6.5833335 5614080
148.45 24.524998 6.6500001 8355584
154.70001 24.700001 6.1500001 255
155.39 24.529999 6.25 255
156.45001 24.483334 6.25 21930
157.64999 24.478571 6.3785725 9512008
158.62779 24.383335 6.5500002 11148344
159.47002 24.23 6.7300005 9178213
160.43573 24.464287 6.6500006 7143569
161.19 24.51 6.8499999 6710835
23.700001 25.099998 6.3000002 65280
24.149998 25.499998 6.8250003 16711680
61.709999 25.530001 6.6300006 13382400
144.95001 25.25 6.5500002 16711680
145.41669 25.616667 6.3166671 16711680
146.05 25.65 6.0500002 16711680
147.45001 25.316666 6.6500006 11162880
148.49286 25.407143 6.4785714 16711680
150.39999 25.9 6.0500002 255
153.75 25.949999 6.1500001 255
154.33 25.43 6.2100005 255
155.30002 25.6 6.3500004 4128959
156.85001 25.65 6.3500004 255
157.5 25.5 6.4500003 255
158.55002 25.394445 6.605556 7405709
159.61667 25.616667 6.6833339 11162880
160.38335 25.266668 6.7000008 13893674
161.23001 25.51 6.8499999 13382400
23.75 26.624998 6.0749998 16711680
24.15 26.483334 6.9166675 16711680
61.625 26.475 6.5250001 16711680
149.55 26.949999 6.0500002 255
152.95001 26.85 6.1500001 255
153.45001 26.409998 6.1700001 255
154.48334 26.616667 6.2833338 21930
156.28333 26.416668 6.3500004 255
157.85001 26.583334 6.4833336 11141205
158.15001 26.35 6.6500001 16711680
159.675 26.424999 6.7500005 16711680
160.51668 26.554764 6.8071423 9512008
161.29001 26.670002 6.9100008 3381555
23.75 27.51 6.1500001 16711680
24.15 27.85 6.9500003 16711680
61.633339 27.516666 6.2666664 16711680
150.51669 27.350002 6.1166668 21930
151.80002 27.849998 6.1000004 65280
152.53001 27.35 6.1100001 255
153.80002 27.549999 6.2500005 16711680
155.45001 27.549999 6.3166671 255
156.35001 27.949999 6.4500003 16711680
157.75 27.450001 6.4500008 5570730
158.5 27.549999 6.5 16711680
159.57501 27.449999 6.6500001 8323199
160.12502 27.400002 6.9000006 4136863
23.750002 28.450001 6.2357149 16711680
61.610004 28.450001 6.2800002 16711680
132.85001 28.85 6.4500003 65280
150.60001 28.549999 6.0500002 65280
151.47002 28.429998 6.0700002 39270
153.35001 28.049999 6.2500005 16711680
154.51668 28.616667 6.250001 255
155.95001 28.65 6.0500002 255
156.75 28.949999 6.4500003 255
157.45001 28.383331 6.5500007 255
158.55 28.549999 6.7500005 255
159.41669 28.483335 6.7833343 5592405
160.15001 28.629999 6.8900003 52275
23.75 29.387501 6.2750001 12533504
24.15 29.85 6.6500001 16711680
61.599998 29.475 6.4249997 16711680
132.61667 29.683334 6.6833339 11162880
150.05 29.049999 6.0500002 65280
153.70001 29.549999 6.2500005 255
154.05 29.949999 6.0500002 255
156.25 29.549999 6.4500003 255
158.70001 29.566669 6.6833339 11141205
159.58334 29.383335 6.6500006 16711680
160.12502 29.699999 6.8000002 8339263
23.75 30.520002 6.5200005 16711680
24.049999 30.35 6.6500001 16711680
61.522728 30.431822 6.6409097 12925184
131.95001 30.099998 6.8500004 16711680
132.45001 30.507145 6.8071437 16711680
133.37308 30.550003 6.6423078 15405824
134.18335 30.283333 6.8833342 16711680
155.60001 30.349998 6.4500003 255
157.40001 30.549999 6.4000001 8323199
158.45001 30.349998 6.7750001 8323199
159.53334 30.483334 6.7666664 8323199
23.700001 31.25 6.6500001 16711680
61.75 31.549999 6.6500001 65280
62.049999 31.216667 6.6500006 16711680
132.65001 31.049999 6.9500003 16711680
134.48334 31.533333 6.4000006 13904384
135.25 31.75 6.3500004 16711680
157.85001 31.15 6.7500005 255
158.57501 31.5 6.7250004 4128959
159.15001 31.15 6.8500004 16711680
160.15001 31.200001 6.9500003 32639
157.75002 32.483334 6.5166674 5570730
158.25 32.200001 6.8500004 8323199
159.69002 32.370003 6.8900008 10027110
155.15001 33.150002 6.2500005 255
157.5 33.349998 6.6500001 255
158.70001 33.599998 6.8500004 32639
159.45001 33.450001 6.75 255
160.15001 33.5 6.9500003 8323199
156.65001 34.75 6.6500001 255
157.325 34.400002 6.7250004 255
158.5 34.5 6.9500003 255
159.55002 34.783337 6.9500003 5592405
160.10001 34.300003 6.9500003 8323199
147.70001 35.400002 6.1000004 16711680
148.5 35.550003 6.1000004 16711680
155.95001 35.950001 6.5500002 255
156.41669 35.483334 6.6500006 255
158.05 35.349998 6.9500003 65280
159.35001 35.549999 6.9500003 255
148.75 36.349998 6.0500002 16711680
155.61667 36.450001 6.6166668 255
156.25 36.349998 6.2000003 255
157.85001 36.349998 6.9500003 65280
158.65001 36.75 6.9500003 255
159.05 36.150002 6.9500003 255
143.75 37.75 6.0500002 16711680
147.55 37.650002 6.1500001 16711680
153.55 37.300003 6.0500002 32639
154.55002 37.650002 6.4000006 5603114
155.25 37.049999 6.5500002 255
157.75 37.450001 6.8500004 16711680
160.25 37.549999 6.6500001 16711680
142.75 38.25 6.0500002 16711680
143.38333 38.616665 6.1166668 16711680
144.38335 38.51667 6.0833335 16711680
147.65001 38.049999 6.2500005 16711680
148.45001 38.349998 6.3500004 16711680
153.65001 38.349998 6.5500002 65280
154.18335 38.549999 6.416667 65280
157.35001 38.049999 6.8500004 16711680
158.45001 38.650002 6.8500004 255
142.75 39.75 6.1000004 16711680
143.90001 39.450001 6.2000003 16711680
144.45001 39.450001 6.1500006 16711680
145.45001 39.849998 6.1500001 16711680
153.55 39.450001 6.5500002 65280
156.35001 39.650002 6.1500001 16711680
157.60001 39.299999 6.5 255
140.75 40.5 6.1500006 16711680
141.35001 40.950001 6.2500005 16711680
142.25 40.349998 6.0500002 16711680
143.40001 40.549999 6.1500001 16711680
144.91669 40.950005 6.5166674 16711680
145.46667 40.366669 6.3000007 16711680
152.65001 40.650002 6.4500003 65280
153.15001 40.049999 6.4500003 65280
155.35001 40.5 6.25 32639
157.45001 40.516666 6.75 255
141.51668 41.650002 6.1166668 16711680
142.38335 41.25 6.1833334 16711680
143.65001 41.549999 6.2000003 16711680
144.51669 41.783337 6.1166677 5614080
145.68335 41.416668 6.2166672 16711680
146.43333 41.583336 6.2166672 11162880
147.25 41.700001 6.3500004 65280
152.25 41.25 6.4500003 65280
155.45001 41.549999 6.2500005 16711680
157.95001 41.349998 6.3500004 16711680
139.75 42.950001 6.2500005 16711680
140.58334 42.383335 6.1500006 16711680
141.55 42.524998 6.1500001 16711680
142.51668 42.483334 6.2833343 16711680
143.51668 42.350002 6.1500006 11162880
144.45001 42.550003 6.1000004 8355584
145.35001 42.583336 6.0833335 5614080
147.65001 42.349998 6.2500005 16711680
148.65001 42.299999 6.2000003 65280
156.95001 42.25 6.3500004 16711680
157.15001 42.349998 6.4500003 65280
158.75 42.150002 6.3500004 255
139.35001 43.549999 6.2500005 16711680
140.55 43.450001 6.2500005 16711680
141.05 43.650002 6.1500001 16711680
142.43001 43.27 6.1500001 16711680
143.40717 43.464283 6.2357149 16711680
144.70001 43.800003 6.25 8355584
145.85001 43.299999 6.2000003 16711680
146.15001 43.25 6.1000004 8355584
151.05 43.349998 6.0500002 16711680
159.55 43.450001 6.5500002 16711680
138.85001 44.150002 6.2500005 16711680
139.75 44.75 6.2500005 65280
140.58334 44.350002 6.2166672 11162880
142.25 44.650002 6.4500003 16711680
143.25 44.049999 6.2500005 16711680
144.85001 44.450001 6.0500002 65280
145.55 44.75 6.3500004 65280
156.45001 44.349998 6.3500004 16711680
158.85001 44.349998 6.6500001 16711680
159.35001 44.650002 6.7500005 16711680
140.30002 45.450001 6.3500004 65280
141.45001 45.400002 6.3500004 65280
152.55 45.549999 6.0500002 65280
158.55 45.549999 6.5500002 16711680
160.45001 45.450001 6.8500004 16711680
161.25 45.450001 6.6500001 16711680
140.95001 46.450001 6.3500004 65280
142.15001 46.700001 6.4000006 8355584
144.25 46.75 6.4500003 255
145.5 46.650002 6.1000004 65280
150.85001 46.650002 6.0500002 255
159.95001 46.349998 6.7500005 16711680
142.85001 47.849998 6.4500003 65280
152.35001 47.549999 6.2500005 16711680
139.55 48.849998 6.3500004 16711680
141.45001 48.25 6.4500003 16711680
142.75 48.349998 6.4500003 16711680
147.75 48.75 6.7500005 16711680
157.85001 48.25 6.5500002 65280
140.39999 49.900002 6.4500003 8355584
142.10001 49.5 6.5 8355584
144.65001 49.25 6.5500002 65280
145.65001 49.25 6.5500002 16711680
146.75 49.450001 6.5500002 16711680
142.45001 50.950001 6.4500003 65280
144.05 50.450001 6.5500002 65280
145.35001 50.849998 6.4500003 16711680
146.55 50.450001 6.2500005 16711680
148.75 50.383331 6.5500007 16711680
149.55 50.849998 6.9500003 16711680
159.35001 50.150002 6.8500004 16711680
144.25 51.349998 6.4000006 16711680
145.25 51.25 6.6500001 16711680
146.85001 51.150002 6.1500001 65280
147.39999 51.400002 6.5500002 16711680
140.39999 52.25 6.4500003 8355584
142.65001 52.75 6.5500002 16711680
144.35001 52.599998 6.5500002 16711680
147.15001 52.349998 6.2500005 16711680
148.05 52.849998 6.5500002 16711680
149.15001 52.549999 6.7500005 16711680
142.95001 53.150002 6.6500006 8355584
144.875 53.474998 6.5750003 12533504
145.85001 53.349998 6.6500001 16711680
147.5 53.5 6.4500003 16711680
148.85001 53.650002 6.5 16711680
149.85001 53.650002 6.6500001 16711680
138.55 54.049999 6.2500005 16711680
141.15001 54.950001 6.4500003 16711680
145.15001 54.849998 6.5500002 16711680
146.55 54.75 6.5500002 16711680
147.95001 54.400002 6.4500003 8355584
139.65001 55.75 6.4500003 16711680
143.30002 55.700001 6.5 8355584
145.25 55.650002 6.3500004 16711680
146.55 55.25 6.6500001 16711680
147.40001 55.599998 6.6500006 16711680
138.35001 56.150002 6.1500001 16711680
140.25 56.950001 6.4500003 16711680
145.85001 56.75 6.5500002 65280
148.25 56.150002 6.75 16711680
149.25 56.25 6.4500003 65280
141.60001 57.550003 6.3000002 16711680
145.55 57.150002 6.5500002 65280
146.75 57.349998 6.6500001 16711680
147.65001 57.849998 6.7500005 16711680
137.95001 58.450001 6.1500001 16711680
138.35001 58.049999 6.2500005 16711680
143.95001 58.25 6.4500003 65280
137.45001 59.450001 6.0500002 16711680
137.65001 60.950001 6.0500002 16711680
137.55 61.349998 6.1500001 16711680
142.15001 61.150002 6.4500003 16711680
148.25 61.849998 6.5500002 16711680
134.5 63.950001 6.4500003 16711680
137.45 63.416668 6.1166668 16711680
144.25 63.849998 6.0500002 16711680
134.38335 64.083344 6.1166677 16711680
137.15001 64.350006 6.0500002 16711680
138.95001 64.450005 6.3500004 16711680
145.85001 64.150002 6.2500005 16711680
136.60001 65.600006 6.0500002 16711680
135.05 66.150002 6.1500001 16711680
136.25 66.800003 6.0500002 16711680
138.45001 66.650002 6.2500005 16711680
135.55002 67.400009 6.0500002 16711680
139.85001 67.450005 6.5500002 16711680
145.55 67.850006 6.2500005 16711680
136.25 68.950005 6.0500002 16711680
137.75 68.150002 6.2500005 16711680
139.05 68.650002 6.4500003 16711680
117.95 69.150002 6.5500002 16711680
118.62501 69.150002 6.4750004 16711680
119.45 69.150002 6.0500002 16711680
120.05 69.150002 6.7500005 16711680
121.35 69.150009 6.3833342 16711680
122.55 69.150002 6.4000006 16711680
123.25001 69.150002 6.7500005 16711680
125.15 69.150002 6.0500002 16711680
135.85001 69.650002 6.2500005 16711680
137.65001 69.450005 6.4500003 65280
138.25 69.550003 6.4500003 16711680
120.35001 70.250008 6.0500002 16711680
125.40001 70.250008 6.0500002 16711680
126.55 70.250008 6.0500002 16711680
127.55 70.250008 6.1500001 16711680
129.95001 70.250008 6.1500001 16711680
130.65001 70.250008 6.1500001 16711680
131.625 70.250008 6.1500001 16711680
132.44092 70.240913 6.1772728 16711680
133.55588 70.226479 6.3382354 16711680
134.29288 70.18573 6.3500004 16711680
135.25002 70.725006 6.3499999 16711680
136.25 70.050003 6.1500001 16711680
137.35001 70.450005 6.3500004 16711680
151.95001 70.350006 6.9500003 16711680
135.20001 71.275009 6.2750001 16711680
117.75001 72.650002 6.0500002 16711680
117.75001 73.350006 6.3500004 16711680
135.15001 74.650002 6.6500001 16711680
136.55 75.150002 6.3500004 16711680
117.68334 77.883347 6.416667 11162880
117.75001 78.250008 6.1500001 16711680
117.75001 79.250008 6.4500003 16711680
135.75 79.850006 6.5000005 16711680
136.05 79.850006 6.6000004 16711680
115.825 80.875008 6.3250003 16711680
116.5 80.850006 6.4500003 8355584
117.05001 80.883347 6.1833339 16711680
115.25001 83.550003 6.2500005 65280
137.35001 83.050003 6.6500001 16711680
115.15 84.300003 6.4000006 16711680
136.25 84.350006 6.7500005 16711680
115.15001 85.150009 6.4833336 16711680
115.15 86.150002 6.5500002 16711680
138.15001 88.650002 6.4500003 16711680
135.95001 89.650002 6.4500003 16711680
136.95001 91.450005 6.5500002 16711680
135.65001 93.5 6.8000002 16711680
136.05 93.450005 6.7500005 16711680
38.555561 -180.60555 7.3388891 16711680
39.455891 -180.6147 7.3676481 16711680
40.492104 -180.60788 7.4657898 16711680
41.150002 -180.7 7.2500005 16711680
49.816666 -180.64999 7.6166668 16711680
50.432354 -180.49118 7.6852937 16711680
23.25 -179.75 7.9500003 16711680
38.175003 -179.625 7.375 16711680
41.621429 -179.84286 7.514287 16711680
42.471428 -179.84286 7.5071435 16711680
43.444122 -179.85001 7.6323528 16711680
44.513638 -179.84999 7.5772729 16711680
45.450001 -179.84999 7.7055554 16711680
46.48 -179.87999 7.5399995 16711680
47.504547 -179.90454 7.5954552 16711680
48.540005 -179.895 7.5549998 16711680
49.359093 -179.88635 7.4500008 16711680
50.5 -179.25 7.6000004 16711680
38.224998 -178.34999 7.6000004 16711680
38.216667 -177.48334 7.5500007 16711680
51.150005 -177.21667 7.4500008 16711680
38.170002 -176.69 7.2900004 16711680
50.224998 -176.64999 7.2249999 16711680
51.150002 -176.46666 7.333334 16711680
38.219997 -175.7 7.6800013 16711680
50.661537 -175.63077 7.5192318 16385024
51.114285 -175.69286 7.3500004 15471104
27.65 -174.25 7.9500003 16711680
28.483334 -174.31668 7.6833339 16711680
29.516666 -174.26666 7.4333339 16711680
30.583334 -174.25 7.4333339 16711680
31.507145 -174.2643 7.3071432 16711680
32.51667 -174.28333 7.4000006 16711680
33.592857 -174.30714 7.3214293 16711680
34.5625 -174.28749 7.5375004 16711680
35.490002 -174.31001 7.2300005 16711680
36.526924 -174.31155 7.3730769 16711680
37.52 -174.31503 7.375 16711680
38.224998 -174.5 7.4500003 16711680
50.775002 -174.19168 7.458334 16711680
50.700001 -173.89999 7.4500003 16711680
68.410004 -172.11803 7.5180001 15993344
68.589417 -171.47119 7.5621204 16450304
51.149998 -170.3625 7.4375 16711680
68.459526 -170.31668 7.5214286 16711680
50.838467 -169.30388 7.569232 16711680
51.109997 -169.43002 7.4633336 16123904
68.521156 -169.65196 7.5076923 16385024
48.450001 -168.05 7.1500001 16711680
49.696159 -168.11536 7.5192308 16711680
50.373528 -168.11467 7.4294119 15732480
68.516663 -168.55835 7.3916674 16711680
48.583336 -167.41667 7.2833338 16711680
50.721439 -167.95 7.4642859 16058624
68.492874 -167.67859 7.4142861 16711680
48.549999 -166.75 7.5500002 16711680
68.565399 -166.69234 7.4884624 16711680
48.583336 -165.41667 7.3500004 11162880
68.535736 -165.56905 7.4261885 16711680
48.549999 -164.35001 7.1500006 16711680
68.59584 -164.73335 7.4958334 16711680
48.650002 -163.55 7.0500002 16711680
68.527138 -163.48711 7.5285716 16711680
68.588898 -162.55557 7.5722222 16711680
50.849998 -161.85001 7.7500005 16711680
68.529274 -161.45729 7.5182915 16646144
-0.050000001 -160.05 7.9500003 16711680
0.064285725 -160.47858 7.4071441 14296064
51.189999 -160.15001 7.4300003 16711680
68.617249 -160.55548 7.5154543 16646144
-0.050000001 -159.05 7.6000004 16711680
0.050000008 -159.5 7.5428581 14296064
51.149998 -159.46112 7.3944449 16711680
68.522118 -159.39047 7.4677219 16711680
-0.050000001 -158.2 7.5 16711680
0.058333337 -158.58333 7.5083342 15275264
50.862503 -158.78127 7.5187507 16711680
51.109997 -158.8 7.3799996 15862784
68.637131 -158.54286 7.5014281 16711680
-0.050000001 -157.35001 7.3500004 16711680
0.050000008 -157.43825 7.579412 13774080
50.780769 -157.38077 7.5500011 16711680
68.54882 -157.3676 7.4782357 16711680
-0.050000004 -156.61667 7.6833339 16711680
0.06176471 -156.50293 7.5147057 13774080
50.724998 -156.54999 7.3000002 16711680
68.6633 -156.50197 7.4646673 16711680
-0.050000001 -155.53 7.75 16711680
0.06666667 -155.47777 7.5777783 15275264
27.707895 -155.4079 7.3657904 16711680
28.449999 -155.52776 7.4583344 16450304
29.505173 -155.5569 7.3120694 15536384
30.516665 -155.54259 7.3055558 15471104
31.477268 -155.53181 7.3454542 15144704
32.454998 -155.52501 7.5399995 16711680
33.486366 -155.5 7.3499994 16711680
34.468754 -155.51561 7.4781246 16711680
35.455555 -155.51387 7.4527774 16711680
36.498486 -155.54695 7.4651508 16711680
37.481247 -155.5625 7.3812504 16711680
38.150002 -155.45 7.4000006 16711680
50.849998 -155.45 7.2500005 16711680
68.559624 -155.37407 7.4885545 16646144
-0.050000001 -154.5 7.7500005 16711680
0.070000008 -154.52336 7.5766678 12794624
27.52857 -154.55 7.5428572 15471104
68.662308 -154.52638 7.503933 16711680
-0.050000001 -153.45001 7.8000002 16711680
0.083333328 -153.52621 7.5690475 14296064
27.536669 -153.54333 7.4100008 14492160
51.199997 -153.56668 7.4666672 16711680
68.624359 -153.4026 7.5179482 16711680
69.545166 -153.28548 7.4629025 16711680
70.440002 -153.30254 7.4624991 16711680
71.281258 -153.31248 7.4937496 16711680
0.085714288 -152.47502 7.5535712 14296064
27.524998 -152.46667 7.3833342 15275264
38.25 -152.85001 7.6500001 16711680
50.820004 -152.5 7.4450011 15862784
51.127781 -152.6611 7.5388889 14818304
0.098148152 -151.47961 7.5907407 15471104
27.5 -151.48749 7.25 16711680
38.25 -151.95 7.0500002 16711680
50.811543 -151.14232 7.5576925 15405824
68.490677 -151.11436 7.4906778 16711680
-0.050000001 -150.64999 7.9500003 16711680
0.074137904 -150.50864 7.5258627 14100224
27.449999 -150.75 7.3500004 16711680
50.740002 -150.50002 7.4100008 15014144
68.668533 -150.51599 7.4994836 16646144
-0.050000001 -149.60001 7.8000002 16711680
0.097999997 -149.51799 7.5219994 16711680
14.950001 -149.05 7.6500001 16711680
15.327778 -149.14999 7.5166669 14818304
16.349998 -149.18333 7.3500004 11162880
17.549999 -149.10001 7.1000004 16711680
18.15 -149.25 7.5500002 16711680
19.450001 -149.14999 7.75 8355584
20.5 -149.2 7.9500003 8355584
21.75 -149.11667 7.3500004 16711680
22.949999 -149.05 7.5500002 16711680
23.949999 -149.14999 7.4500003 65280
24.699999 -149.10001 7.5000005 16711680
25.849998 -149.20001 7.2000003 16711680
26.549999 -149.17499 7.4000006 12533504
27.450001 -149.15836 7.5083342 9726464
37.950001 -149.10001 7.9000006 16711680
38.400002 -149.23334 7.8833342 16711680
39.610001 -149.31001 7.7900004 16711680
40.583332 -149.20001 7.5300007 16711680
41.470005 -149.25 7.4827285 16385024
42.502174 -149.1978 7.4413047 16711680
43.488594 -149.27635 7.4903512 16711680
44.495903 -149.19586 7.5024586 16515584
45.522182 -149.2829 7.5284805 16450304
46.487946 -149.20518 7.5028744 16711680
47.520287 -149.27841 7.4635129 16254464
48.455593 -149.20511 7.4920549 16385024
49.488312 -149.26807 7.4904256 16646144
50.420654 -149.2326 7.4826083 16254464
68.602119 -149.49678 7.5074468 16646144
-0.050000001 -148.64999 7.6500001 16711680
0.10365854 -148.48416 7.5231714 15275264
17.15 -148.95 7.6500001 16711680
25.65 -148.95 7.5500002 16711680
68.645485 -148.58215 7.4553571 16711680
-0.050000001 -147.95 7.5500002 16711680
0.1224138 -147.4707 7.5017247 15797504
68.641556 -147.55418 7.4640856 16711680
-14.45 -146.05 7.3500004 16711680
-9.9499998 -146.05 7.4500003 16711680
-6.0499997 -146.05 7.3500004 16711680
-3.95 -146.05 7.6000004 16711680
-1.85 -146.05 7.3500004 16711680
0.13235296 -146.56764 7.5205889 15732480
68.628708 -146.58052 7.4527764 16711680
-18.683334 -145.75002 7.4666672 16711680
-16.562502 -145.825 7.5125003 14622464
-14.477273 -145.78638 7.5409098 16711680
-12.400001 -145.75 7.5214281 16711680
-10.291666 -145.79167 7.4083343 16711680
-9.8500004 -145.95 7.0500002 16711680
-8.2000008 -145.77499 7.5250001 16711680
-7.3699999 -145.95 7.5300002 16711680
-6.2233348 -145.82335 7.3900008 15014144
-5.3681822 -145.94998 7.4045463 16711680
-4.2599998 -145.77 7.4500008 16711680
-3.7250001 -145.86998 7.4300003 16711680
-2.5500002 -145.85001 7.2833338 16711680
-1.6722225 -145.89442 7.4388905 16711680
-0.61666667 -145.95001 7.2666674 13904384
0.21666667 -145.80002 7.3666668 11162880
38.25 -145.75 7.1500001 16711680
39.099998 -145.35001 7.3500004 8355584
68.666077 -145.52144 7.4821424 16711680
39.25 -144.55 7.0500002 16711680
68.600006 -144.56662 7.5124979 16711680
68.681343 -143.49033 7.4992528 16711680
68.601677 -142.55452 7.4679756 16711680
68.706116 -141.46227 7.4640355 16711680
68.624344 -140.49872 7.4448714 16711680
68.716675 -139.51297 7.3870368 16711680
68.648438 -138.47034 7.4234376 16711680
68.720284 -137.48242 7.4121623 16711680
68.630272 -136.3979 7.4345064 16580864
68.745819 -135.53958 7.3479156 16711680
68.630516 -134.42641 7.4180551 16711680
68.734009 -133.49603 7.4479995 16711680
68.654106 -132.44725 7.4554801 16711680
69.050003 -132.25 7.1500001 16711680
70.850006 -132.35001 7.3000002 16711680
76.550003 -132.45 7.4500003 16711680
77.790009 -132.27 7.4700007 16711680
78.583336 -132.28334 7.4833336 16711680
79.150002 -132.25 7.6500001 16711680
80.516678 -132.28334 7.4833336 16711680
81.666672 -132.26666 7.5 16711680
83.350006 -132.3 7.5500002 16711680
68.589989 -130.08601 7.4539995 16711680
69.750015 -130.16336 7.3633347 16711680
70.606255 -130.18126 7.40625 16711680
71.573082 -130.1846 7.4538469 16385024
72.553452 -130.1741 7.4844828 16711680
73.491173 -130.17644 7.4294114 16711680
74.471428 -130.17497 7.4785728 16058624
75.543755 -130.19376 7.6312494 15144704
76.427773 -130.17778 7.3722229 16711680
77.350006 -130.15001 7.4900002 16711680
78.583336 -130.14999 7.2833338 16711680
79.510002 -130.18999 7.5500002 16711680
80.416672 -130.15001 7.25 16711680
81.430008 -130.18999 7.3100009 16711680
82.400009 -130.14999 7.5500002 16711680
83.450005 -130.25 7.6100006 16711680
27.231817 -129.36819 7.3772731 15144704
43.650013 -129.36742 7.4413056 16319744
48.450005 -129.22499 7.5250006 14622464
68.756813 -129.49318 7.5431833 16319744
27.227777 -128.61665 7.3277783 15732224
43.656261 -128.49062 7.4437504 16189184
48.45834 -128.52499 7.5083332 12533504
68.668762 -128.44167 7.4604163 16319744
27.25 -127.15 7.0500002 16711680
43.65279 -127.51112 7.4444451 16189184
48.466667 -127.43334 7.3333335 2806784
68.694916 -127.62975 7.4644928 16711680
18.85 -126.05 7.8500004 16711680
27.25 -126.25 7.0500002 16711680
43.697067 -126.57646 7.4911766 16711680
48.450001 -126.6 7.3625002 10444544
68.70491 -126.43626 7.5009804 16711680
4.750001 -125.35 7.1166677 5614080
27.25 -125.35 7.1500006 16711680
43.656681 -125.48334 7.4833336 16711680
48.450005 -125.66428 7.3500004 11945984
68.688362 -125.55135 7.4609566 16711680
27.25 -124.05 7.1500001 16711680
43.657154 -124.49643 7.4535718 16711680
48.474998 -124.525 7.125 4177664
68.782578 -124.48721 7.4406972 16711680
4.3500004 -123.65 7.0500002 65280
27.25 -123.45 7.1500001 16711680
43.674004 -123.562 7.5219994 16711680
48.450001 -123.65 7.2500005 16711680
68.676254 -123.54754 7.4675012 16711680
84.850006 -123.75 7.6500001 16711680
17.6625 -122.22501 7.2124996 14622464
18.518421 -122.24474 7.2552633 16711680
