# .PCD v0.7 - Point Cloud Data file format
VERSION 0.7
FIELDS x y z
SIZE 4 4 4
TYPE F F F
COUNT 1 1 1
WIDTH 1608
HEIGHT 1
VIEWPOINT 0 0 0 1 0 0 0
POINTS 1608
DATA ascii
-166.66418 38.269203 17.440001
-167.57236 38.856213 17.435715
-168.54796 39.316383 17.475
-169.13388 39.818241 17.450001
-166.12357 36.41555 17.449999
-151.52487 27.011261 17.310001
-152.20268 26.87722 17.275
-166.2823 35.823994 17.416668
-152.6317 26.634155 17.200001
-166.84836 34.51017 17.587498
-167.15103 34.785954 17.35
-152.27908 25.04493 17.75
-152.91519 25.643131 17.549999
-167.25873 33.439392 17.609999
-169.10773 31.296852 17.450001
-169.42783 30.442432 17.4
-170.05995 29.147507 17.4
-170.24174 29.272675 17.450001
-170.23141 28.250568 17.700001
-147.36212 13.661346 17.15
-170.60583 27.735424 17.383333
-146.24596 11.954597 17.110001
-146.73837 12.608398 17.116667
-147.66882 13.030125 17.400002
-145.98488 10.980171 17.183334
-146.12941 11.246452 17.174999
-148.11661 12.287907 17.65
-141.64565 2.1625519 17.9
-142.38177 2.5875587 17.824999
-143.29111 3.1125526 17.866667
-144.15714 3.6125526 17.883333
-144.92419 4.0554123 17.892857
-145.74484 4.5292282 17.883331
-146.50984 4.97089 17.866665
-147.37585 5.4708824 17.866665
-148.18416 5.937561 17.874998
-140.76178 1.2134628 17.889999
-141.62781 1.713459 17.889997
-142.45186 2.1661415 17.849998
-175.2755 21.393997 17.48
-176.01912 21.892616 17.25
-175.32127 19.92561 17.386364
-175.46442 20.186718 17.75
-138.65883 -2.5641098 17.549999
-139.45596 -1.9114456 17.383335
-140.38419 -1.4525032 17.15
-141.15021 -0.77930069 17.15
-151.28358 5.1236916 17.440908
-152.05827 5.4607391 17.5
-175.65552 19.055748 17.575001
-138.91553 -3.1087303 17.5
-152.69875 4.6180763 17.6
-153.52193 3.5922356 17.15
-140.64232 -6.4996262 17.949999
-177.91443 15.943199 17.65
-141.22891 -7.3156471 17.949999
-154.83533 1.1173706 17.949999
-178.36713 14.55912 17.624998
-178.58942 14.774071 17.299999
-141.41553 -7.4388466 17.15
-155.40543 -0.17007446 17.15
-178.66801 13.837944 17.85
-141.95392 -8.5713844 17.450001
-179.11801 13.058517 17.65
-143.31552 -10.729748 17.049999
-143.37892 -11.039562 17.85
-180.97783 10.437241 17.65
-143.92892 -11.992191 17.949999
-146.02892 -15.62949 17.85
-146.86552 -16.878529 17.35
-147.72891 -18.573978 17.75
-148.76553 -20.169422 17.15
-11.810749 133.14317 18.5
-12.46027 133.51817 18.299999
-13.907509 134.41148 18.049999
-17.759178 132.9402 18.049999
-18.184769 132.06972 18.450001
-18.559895 131.39333 18.43
-19.24757 130.16222 18.4
-19.559185 129.82249 18.200001
-20.065872 128.84488 18.799999
-20.618103 127.85506 18.483334
-20.854271 127.27934 18.65
-21.639942 126.17409 18.405556
-21.940872 125.59729 18.299999
-22.594223 124.41565 18.549999
-23.146683 123.60878 18.325001
-23.606735 122.66196 18.75
-23.00132 121.63197 18.292856
-23.639149 121.99747 18.479166
-82.376511 149.67688 18.378571
-83.503761 147.71724 18.525
-83.608002 147.28668 18.799999
-84.386887 146.00432 18.783333
-54.583717 127.75822 18.049999
-84.601311 145.66623 18.450001
9.3484421 84.091965 18.9
9.0368385 83.752251 18.949999
-72.043518 131.08365 18.783333
-72.304657 131.08687 18.549997
8.8289948 83.192261 18.727777
-72.673798 129.9753 18.874998
-72.810181 130.12909 18.700001
-88.925827 139.67595 18.049999
8.4151115 82.475403 18.641666
8.0868378 82.106804 18.450001
-7.2266197 91.583122 18.4
-72.920441 129.59808 18.875
-73.255722 129.51147 18.467646
-89.168686 138.98865 18.350002
7.8734436 81.537201 18.35
7.6618385 81.370682 18.15
-7.6650162 90.623802 18.799999
-8.0565186 90.445694 18.65
-73.572945 128.46791 18.91
-73.753471 128.50908 18.434616
7.4020157 80.720657 18.32143
7.1868362 80.547966 18.083336
-8.4150162 89.324768 18.549999
-73.882942 127.93098 18.85
-74.195663 127.774 18.423077
-90.095932 137.34929 18.65
6.8609428 79.783493 18.150002
6.9118423 80.071655 18.049999
-8.9150162 88.45874 18.949999
-8.899826 89.085052 18.4
-74.714157 126.92132 18.405001
-91.150833 135.82214 18.449999
-9.1650162 88.025726 18.25
-9.4103889 88.167389 18.5
-75.216309 126.03973 18.399998
-91.493103 135.09598 18.450001
6.0234413 78.332901 18.15
-9.9132233 87.129791 18.424999
-75.75473 125.10999 18.592108
-91.743103 134.66298 18.350002
-10.826897 86.213928 18.616667
-76.182938 123.94727 18.949999
-76.310997 124.2255 18.515387
-92.287445 134.05348 18.15
-11.173027 85.547745 18.450001
-76.786346 123.4054 18.520964
-92.848389 132.7319 18.424999
-11.215019 84.475014 18.949999
-11.579727 84.743317 18.399998
-77.319931 122.50386 18.524075
-93.500832 131.75182 18.25
3.7401085 74.378059 18.950001
-11.715015 83.608994 18.799999
-12.071476 83.641586 18.724998
-77.582947 121.52239 18.949999
-77.758713 121.67602 18.559675
3.3651085 73.728531 18.733334
3.4368401 74.052773 18.949999
-12.318287 82.764099 18.716667
-78.232941 120.39656 18.949999
-78.293533 120.76706 18.563206
2.8484421 72.833649 18.575001
2.5868416 72.580536 18.449999
-2.0429649 75.561478 18.216667
-3.897522 76.32428 18.824999
-4.3846626 76.60553 18.9
-5.8136063 77.430534 18.949999
-6.2832222 77.817131 18.5
-7.4956589 78.517136 18.25
-12.830864 81.626289 18.449999
-12.840656 82.022957 18.559092
-78.761887 119.94977 18.565281
-86.08284 124.46683 18.516666
-86.708176 124.74704 18.495001
-87.577728 125.25642 18.472727
-88.542397 125.69176 18.40517
-89.579025 126.12008 18.5051
-90.214493 126.04393 18.15
-94.805298 129.42575 18.550001
2.3789978 72.020538 18.472223
2.3368416 72.147522 18.099998
-2.4707966 74.653793 18.383333
-8.6250801 78.360916 18.25
-13.185019 81.062874 18.57
-13.261616 81.130203 18.429998
-79.263863 119.07159 18.516291
-90.156853 125.34996 18.456188
2.0027523 70.935532 18.549999
1.2651386 71.211273 18.356667
0.45250893 71.712334 18.335712
-0.48925972 72.155602 18.404547
-1.345583 72.669373 18.374998
-2.257328 73.13913 18.430847
-3.0520706 73.704971 18.458698
-3.6465149 73.850716 18.633333
-9.2231636 77.353577 18.592857
-9.9679031 77.635086 18.594444
-10.858568 78.172409 18.629999
-11.71727 78.645081 18.589998
-12.29612 79.152489 18.275002
-13.538488 80.032471 18.504545
-13.909872 80.257393 18.25
-79.897758 118.45145 18.533079
-80.909546 118.91768 18.5119
-81.775772 119.46512 18.530489
-82.60025 119.94188 18.430645
-83.411705 120.38802 18.491936
-84.322723 120.93262 18.559677
-84.87767 121.20759 18.57
-90.527153 124.69737 18.5175
-91.251373 124.94132 18.513332
-92.027527 125.39111 18.590624
-92.962791 125.88371 18.511292
-93.915901 126.3829 18.382141
-94.774849 126.82933 18.452633
-95.579025 127.30228 18.452499
-90.254379 106.44756 18.459091
-91.15506 107.0148 18.466665
-91.786285 107.32151 18.449999
-94.663017 109.0722 18.283335
-95.311981 109.41481 18.699999
-98.516289 111.26481 18.566666
-98.961624 111.53347 18.370001
-99.835869 112.04591 18.566668
-24.282513 67.264542 18.496157
-25.004179 67.648628 18.449999
-25.842617 68.11071 18.507145
-26.740116 68.704758 18.57
-27.681564 69.329132 18.412498
-28.523483 69.670868 18.5875
-29.416033 70.218674 18.521877
-30.215132 70.699173 18.401516
-30.69875 71.066658 18.480768
-80.521294 99.930191 18.552858
-81.033875 100.3998 18.459091
-82.06514 101.01618 18.392859
-82.857193 101.41574 18.535715
-83.751617 101.97544 18.481249
-84.546761 102.48744 18.376669
-90.278397 105.51892 18.407145
-90.383331 105.8797 18.470757
-91.339561 106.72606 18.511539
-91.936287 107.0617 18.349998
-94.366028 108.29771 18.627777
-94.69043 108.66281 18.511906
-95.727898 109.32777 18.566666
-96.129807 109.5983 18.549999
-97.471107 110.14177 18.350002
-98.545082 110.78491 18.51
-99.23143 111.2928 18.366667
-99.912498 111.71925 18.46818
-30.975269 70.24926 18.799999
-30.886871 70.602364 18.699999
-80.864807 99.245949 18.507893
-90.55088 105.04459 18.408333
-90.567627 105.23228 18.049999
-31.32527 69.643036 18.75
-31.611872 69.346626 18.449999
-80.766975 97.730072 18.488708
-80.93045 98.338936 18.491463
-32.125267 68.257401 18.65
-32.161873 68.393997 18.449999
-80.565559 96.356384 18.664286
-80.661255 96.886955 18.446299
-116.79369 117.14074 18.550001
-117.51904 117.57105 18.505001
-118.31518 118.01917 18.438236
-119.16084 118.5074 18.503334
-120.08801 119.04271 18.461763
-120.88136 119.50075 18.590002
-121.64175 119.93976 18.608824
-127.85754 123.53944 18.578573
-128.77972 124.10085 18.461542
-129.63461 124.61632 18.457142
-130.4201 125.06384 18.585482
-131.25122 125.55998 18.465624
-132.17883 126.09866 18.519566
-132.7594 126.474 18.379999
-32.387772 67.802734 18.775
-80.86203 95.802841 18.67
-81.049377 95.846207 18.441669
-116.98079 116.63182 18.45286
-127.93925 122.94055 18.483786
-129.42992 124.3208 18.25
-130.90218 125.17081 18.85
-132.05685 125.83746 18.65
-32.750267 67.174866 18.799999
-81.394798 94.870087 18.7125
-81.525467 95.00808 18.388096
-117.48883 115.76053 18.460716
-127.34884 120.92535 18.083332
-128.14989 121.38785 18.099998
-128.3792 122.08952 18.484884
-81.860184 94.113991 18.625
-81.975166 94.292633 18.549999
-117.98418 114.93581 18.435713
-127.39883 120.83875 18.65
-128.2124 121.2796 18.625
-128.61127 121.53876 18.674999
-27.739887 61.453106 18.049999
-82.422684 93.139709 18.700001
-82.549957 93.341492 18.494444
-118.49628 114.04029 18.504547
-28.855911 61.520092 18.25
-82.722687 92.620094 18.75
-83.044998 92.661842 18.424999
-118.96865 113.2003 18.51
-29.615719 60.80407 18.15
-31.174564 61.704067 18.549999
-31.570978 61.817463 18.049999
-32.820015 62.654068 18.949999
-83.699013 92.029076 18.65
-119.51096 112.30096 18.65
-86.397568 91.855034 18.25
-86.747238 92.249374 18.549999
-119.94595 111.54752 18.410002
-120.4571 110.59555 18.683334
-121.03596 109.6596 18.333332
-121.56095 108.75026 18.3125
-122.03596 107.92755 18.4
-122.4693 107.17699 18.483334
-123.01453 106.2326 18.478573
-123.54655 105.27783 18.466667
-124.00595 104.5154 18.33
-108.9707 94.957214 18.949999
-124.34818 103.98936 18.683332
-125.27878 103.91081 18.65
-127.29385 105.42062 18.25
-127.77015 105.69561 18.099998
-128.63618 106.19561 18.325001
-130.47493 106.91081 18.35
-132.01547 107.74251 18.525
-41.96143 54.537338 18.308332
-42.651314 55.017437 18.487499
-43.973679 54.589897 18.443941
-44.525978 54.978748 18.549999
-49.462326 57.828751 18.85
-50.729225 58.367744 18.683332
-51.189041 57.637981 18.578573
-74.880661 71.00293 18.85
-89.828362 79.979401 18.416668
-51.619484 56.909126 18.5
-74.980659 70.82972 18.949999
-90.326172 79.025505 18.625
-52.069954 56.101105 18.622223
-90.775398 78.287827 18.565384
-129.86052 100.97502 18.716667
-130.01794 100.90233 18.475
-52.609596 55.155327 18.598148
-72.969658 67.012856 18.299999
-91.174591 77.559944 18.571053
-130.29385 100.22446 18.824999
-130.55045 99.980011 18.469999
-53.087284 54.34407 18.486366
-73.439362 65.988213 18.283335
-91.73732 76.644821 18.488461
-130.82718 99.300705 18.716667
-131.03877 99.134193 18.383333
-53.620209 53.412296 18.524073
-74.162964 65.046005 18.15
-92.298065 75.78093 18.508335
-131.28384 98.509735 18.65
-132.87949 98.945999 18.049999
-54.074909 52.609924 18.531483
-74.57296 64.335861 18.25
-92.827087 74.909157 18.496775
-133.46249 98.936188 18.15
-54.600182 51.723476 18.453125
-74.846306 63.862438 18.116667
-75.850632 64.172859 18.474998
-76.406334 64.49369 18.25
-93.334465 74.017883 18.503969
-93.309296 74.483566 18.4
-134.49908 97.340744 18.449999
-55.101891 50.86071 18.527143
-74.970139 62.04792 18.049999
-75.403152 62.297924 18.15
-76.312477 62.822922 18.15
-77.16407 63.31459 18.283333
-77.966583 63.777924 18.310001
-78.863914 64.353729 18.150002
-79.593323 64.890327 18.25
-80.599297 65.29792 18.75
-81.762932 65.815788 18.049999
-82.684456 66.386322 18.099998
-83.38398 66.674721 18.25
-93.816895 73.199059 18.52433
-93.975967 73.328865 18.283333
-134.82713 96.652565 18.450001
-55.611176 50.015682 18.498148
-78.028023 63.351513 18.049999
-79.586868 64.251511 18.15
-80.489494 64.888115 18.049999
-81.405518 65.301514 18.35
-82.687897 66.080383 18.25
-83.433983 66.588112 18.15
-94.331352 72.29467 18.508665
-94.499298 72.422424 18.190001
-135.26637 95.878471 18.366667
-56.091053 49.162876 18.546154
-94.83345 71.446098 18.50185
-95.02597 71.510216 18.116667
-119.31827 85.934708 18.375
-135.77525 95.030403 18.383331
-56.584389 48.315212 18.538891
-95.34568 70.584427 18.466454
-95.496796 70.694702 18.150002
-119.98711 85.03627 18.529999
-136.17227 94.330254 18.35
-57.117973 47.390221 18.525
-95.833626 69.714478 18.516153
-95.959297 69.893631 18.274998
-120.73776 83.776093 18.65
-134.91885 92.21373 18.283333
-135.14995 92.681198 18.535715
-136.03217 93.310982 18.47051
-136.5186 93.676208 18.583334
-46.925037 39.890121 18.316666
-57.623253 46.515785 18.505558
-96.351578 68.862259 18.487335
-96.484299 68.984299 18.25
-107.44597 74.978165 18.58
-121.0711 83.198738 18.272223
-135.37718 91.419876 18.25
-135.5032 91.401649 18.613636
-42.389889 36.07856 18.449999
-45.911724 38.111893 18.583334
-46.893223 38.678558 18.949999
-47.269066 39.360931 18.462122
-53.475018 42.478561 18.599998
-54.258102 42.942223 18.389999
-55.06414 43.417038 18.504543
-56.053093 44.013203 18.65
-56.948273 44.512711 18.449999
-57.817348 45.024097 18.450001
-58.121548 45.661602 18.498886
-96.809036 68.041298 18.522579
-97.626457 68.056015 18.43
-98.451279 68.484108 18.51
-99.344803 69.004791 18.449999
-100.14545 69.514473 18.47143
-100.98905 69.981865 18.457691
-101.89298 70.539276 18.496155
-102.35545 70.81517 18.049999
-107.82237 74.317902 18.484373
-108.60815 74.425171 18.51
-109.86487 75.208466 18.4
-110.47275 75.584175 18.421429
-111.43207 76.09404 18.583334
-112.38468 76.644035 18.550001
-112.99091 76.994041 18.849998
-115.17662 78.248268 18.463331
-121.54024 82.411125 18.437498
-135.8994 90.515358 18.161112
-135.9913 90.562614 18.627417
-42.427517 35.984814 18.478571
-43.197662 36.429459 18.649998
-44.057888 36.839504 18.387501
-44.80315 37.298653 18.5875
-45.774086 37.916954 18.5
-46.673447 38.359222 18.6
-47.294106 38.71756 18.450001
-53.351814 42.291962 18.85
-54.395515 42.817562 18.950001
-55.70348 43.418755 18.25
-55.963291 43.568756 18.049999
-56.945816 44.366959 18.4
-58.301556 44.918755 18.35
-58.374756 45.191956 18.25
-97.227577 67.424194 18.640909
-97.748573 67.594528 18.364285
-98.578445 68.057159 18.4
-99.518127 68.574028 18.527779
-100.4677 69.124832 18.57
-101.33529 69.648827 18.35
-102.1075 70.094658 18.625
-108.18584 73.737694 18.571051
-109.21971 74.200905 18.537498
-109.90894 74.598824 18.466667
-110.78844 75.1231 18.392859
-111.61436 75.54496 18.416666
-112.42041 76.048828 18.533333
-113.38747 76.607155 18.5
-115.46689 77.665588 18.483847
-121.90443 81.755363 18.683332
-136.40634 89.637299 18.341665
-136.48634 89.698769 18.697062
-115.96199 76.82827 18.445774
-136.89383 88.792923 18.280001
-137.10036 88.813881 18.543619
-116.3388 76.001701 18.42742
-117.42766 76.213669 18.519566
-117.58331 76.439796 18.535715
-137.40384 87.909576 18.163336
-137.53889 88.061035 18.571819
-149.3718 94.380486 18.25
-117.88535 75.710106 18.459675
-117.97894 75.779503 18.450001
-119.43043 76.269051 18.721428
-120.30579 76.790939 18.450001
-121.18589 77.37989 18.609999
-121.94237 77.689629 18.51
-137.72385 87.355324 18.35
-138.07347 87.42701 18.506821
-139.12228 88.116524 18.433334
-140.09462 88.394478 18.586365
-140.82002 88.692574 18.424999
-141.69736 89.439667 18.375
-142.48039 89.916763 18.469999
-143.4001 90.368217 18.383333
-144.3618 90.89138 18.566666
-145.15953 91.409683 18.472223
-145.91127 91.574272 18.35
-146.86389 92.124268 18.549999
-147.78645 92.926338 18.616667
-148.58258 93.347488 18.283333
-149.7334 93.954178 18.375
-150.68112 94.212669 18.799999
-151.17618 94.921883 18.416668
-137.09523 84.166374 18.446299
-137.59174 84.563263 18.461939
-138.51192 85.142471 18.557041
-139.22897 85.589844 18.546227
-143.11057 88.225235 18.949999
-136.71469 82.73259 18.455883
-137.3652 83.322609 18.482258
-137.5584 83.841888 18.33
-150.00266 90.587799 18.049999
-151.20065 91.279465 18.516666
-151.8213 91.637794 18.9
-152.60072 92.087799 18.200001
-153.89977 92.837799 18.799999
-154.56148 93.258331 18.583334
-156.2236 94.179466 18.416668
-156.88756 94.562798 18.85
-158.94771 95.694496 18.25
-159.44902 95.926193 18.200001
-160.35165 96.562798 18.75
-162.03372 97.649399 18.85
-162.91313 97.926193 18.099998
-165.20139 99.362801 18.799999
-165.72101 99.662804 18.85
-173.09563 103.6896 18.949999
-137.16695 82.077286 18.468031
-137.38953 82.257492 18.280771
-137.66589 81.211357 18.527779
-137.9895 81.095169 18.335714
-138.15227 80.380547 18.539091
-138.48494 80.281494 18.283335
-138.65001 79.528374 18.485714
-138.83238 79.635307 18.300001
-139.13235 78.6847 18.538729
-139.2309 78.967285 18.33889
-140.62357 79.052864 18.450001
-139.50012 78.107323 18.392859
-140.25198 78.376457 18.75
-141.15375 78.705505 18.529545
-141.89191 78.827705 18.470833
-142.31059 78.464172 18.550001
-152.32861 83.55912 18.549999
-103.23706 53.888187 18.15
-106.18154 55.588181 18.283333
-106.91766 56.01318 18.15
-122.42532 65.053131 18.174999
-123.19494 65.480156 18.129999
-124.0787 65.964409 18.225
-124.89973 66.467308 18.387499
-125.7952 67.000961 18.465384
-152.49774 82.778702 18.470835
-79.779106 39.651901 18.483334
-80.303131 39.942905 18.441999
-81.156487 40.447132 18.46633
-82.016739 40.955643 18.455124
-82.88295 41.448433 18.514709
-83.738129 41.942085 18.486538
-84.605003 42.435829 18.471998
-85.476151 42.9492 18.499125
-86.32338 43.438118 18.484091
-87.178619 43.947639 18.511364
-88.045029 44.461094 18.481913
-88.921349 45.022972 18.498215
-89.649078 45.39653 18.434448
-97.980011 50.107151 18.609461
-98.135742 50.635021 18.549999
-99.203156 51.097328 18.638887
-100.12856 51.61512 18.464285
-101.04969 52.07682 18.362499
-101.8953 52.705524 18.303335
-102.68711 53.240753 18.400003
-103.56763 53.698952 18.295834
-104.47655 54.07975 18.403847
-105.32812 54.629303 18.464815
-106.0957 55.170219 18.495237
-106.96929 55.781662 18.518421
-107.53594 56.1623 18.669998
-116.38103 60.322163 18.949999
-116.36952 60.871216 18.502085
-117.46072 61.740978 18.35
-117.96766 62.145462 18.292856
-119.17372 62.685074 18.200001
-120.19924 63.07246 18.34091
-120.73237 63.513371 18.429998
-121.83572 64.314362 18.609999
-122.25301 64.751579 18.049999
-123.61649 64.961433 18.307142
-124.53361 65.666 18.453226
-125.26412 66.16288 18.536667
-126.10189 66.586807 18.460526
-142.20189 75.299118 18.419998
-142.43359 75.512077 18.464285
-143.57887 76.094116 18.51
-144.66837 76.827065 18.450001
-145.16968 77.058762 18.049999
-145.91251 77.372162 18.15
-147.18654 78.165466 18.200001
-148.07587 78.650055 18.4125
-148.42725 79.016502 18.349998
-152.96323 81.959625 18.488752
-80.203064 38.684238 18.450001
-80.385918 39.03595 18.339474
-90.082321 44.701454 18.6
-98.315132 49.538181 18.412498
-116.67271 59.816982 18.616667
-116.7264 59.996696 18.422726
-126.97184 65.75164 18.450001
-142.48895 74.756767 18.51129
-142.76167 75.091148 18.450001
-143.78752 75.786072 18.372221
-144.97327 76.598953 18.15
-145.62949 76.86235 18.449999
-147.20663 77.830658 18.625
-148.26904 78.475128 18.365385
-148.67888 78.680656 18.450001
-153.39806 81.118553 18.47373
-80.861168 38.244362 18.380001
-90.783913 43.657646 18.516666
-117.28104 58.763317 18.583334
-117.37325 59.146465 18.521429
-127.43459 64.965088 18.508821
-142.10013 73.426208 18.476988
-142.55345 74.017433 18.530306
-153.86993 80.358688 18.426924
-81.371361 36.760681 18.15
-81.545189 36.999607 18.33
-91.443863 42.714611 18.849998
-92.355675 43.235275 18.655003
-92.906448 43.625751 18.538889
-99.124893 47.010689 18.35
-109.627 53.420494 18.216667
-110.5873 53.917191 18.529999
-111.08547 54.180065 18.178572
-117.92299 58.178699 18.459093
-128.0211 63.960953 18.4
-128.62926 64.25856 18.434906
-129.36705 64.654076 18.420729
-142.64015 72.515511 18.493395
-142.85066 72.775398 18.599998
-154.2505 79.530304 18.75
-67.876556 28.334366 18.4
-68.40477 28.529831 18.360348
-69.175369 28.990036 18.360527
-70.094673 29.509151 18.395832
-71.073059 30.079365 18.40926
-71.792381 30.488813 18.423683
-72.819122 31.044552 18.456451
-73.443832 31.247128 18.305555
-75.435974 32.641064 18.049999
-76.388603 33.191067 18.049999
-77.027565 33.617702 18.166668
-81.987617 36.25045 18.385717
-111.73015 53.577751 18.411539
-117.98773 57.439278 18.625
-118.20424 57.564278 18.049999
-130.10298 64.377937 18.501427
-143.10997 71.71859 18.426926
-143.18236 72.100876 18.949999
-68.547966 27.971451 18.25
-73.85305 30.649443 18.716667
-82.321159 35.715565 18.550001
-112.20369 52.757519 18.4625
-118.64915 56.336533 18.507145
-130.74538 63.44236 18.450003
-143.63588 70.801117 18.464285
-74.375481 29.50288 18.5375
-78.751038 31.899206 18.049999
-112.54254 51.870625 18.549999
-118.93104 55.905434 18.25
-119.59917 55.348171 18.5
-131.08038 62.862129 18.5
-144.14987 69.848213 18.496155
-64.715019 23.010309 18.309999
-65.546066 23.495892 18.324999
-66.172859 23.751919 18.383331
-95.067604 40.338089 18.200001
-119.89083 54.842991 18.4
-131.55739 61.591507 18.450001
-144.45782 69.325043 18.566666
-65.317284 21.833824 18.716667
-66.814583 22.813759 18.57
-79.677834 29.893951 18.25
-95.537102 39.358231 18.083332
-120.40753 53.871136 18.434616
-132.12254 60.529827 18.35
-65.925018 20.914528 18.15
-67.397263 21.76453 18.65
-80.301041 29.214527 18.049999
-96.061508 38.583271 18.383335
-120.92299 52.982544 18.513636
-132.55019 59.796288 18.470001
-148.23044 69.357353 18.049999
-66.04512 20.406517 18.625
-67.678963 21.176613 18.65
-96.549301 37.671707 18.4
-121.41701 52.153439 18.488462
-133.03288 58.920265 18.550001
-66.571754 19.594364 18.616667
-68.110657 20.328888 18.949999
-80.927834 27.728888 18.15
-96.820175 37.077545 18.449999
-121.90066 51.339657 18.461115
-133.59222 57.961487 18.600002
-81.627838 26.516453 18.25
-85.721359 29.226261 18.65
-97.454262 36.189957 18.607143
-122.37318 50.54343 18.402941
-133.98441 57.398872 18.488888
-157.16185 70.287697 18.690001
-30.832333 -3.5031662 18.449999
-31.549915 -3.3460531 18.527271
-32.347183 -2.9364882 18.526192
-33.275627 -2.4100742 18.500002
-34.052284 -1.9850388 18.464287
-34.82822 -1.548049 18.402378
-35.790535 -1.0173454 18.449997
-36.731236 -0.47592068 18.433334
-37.555798 0.051460266 18.491667
-38.37706 0.49957657 18.379412
-39.247463 1.0088997 18.487499
-39.918774 1.7486677 18.550001
-40.63974 2.3945227 18.480768
-41.614887 2.9616375 18.490742
-42.510746 3.1581116 18.453703
-43.586697 3.4898472 18.502634
-44.475368 3.9464054 18.470001
-45.45293 4.5116901 18.58077
-46.337669 4.9741364 18.66111
-47.099586 5.8639908 18.635712
-47.632538 6.5156803 18.508825
-48.425396 6.9676113 18.35
-49.377083 7.3319492 18.583332
-50.221497 7.113821 18.75
-51.477234 7.8388233 18.799999
-52.574715 8.5879269 18.799999
-53.842728 9.4816704 18.769999
-55.101139 10.162027 18.699999
-55.346516 10.303696 18.783333
-56.520805 10.843107 18.629999
-57.539406 11.338823 18.700001
-58.506474 11.897156 18.683332
-59.18306 12.691933 18.75
-60.377197 13.323631 18.75
-82.410851 26.160236 18.35
-86.271362 28.273634 18.35
-86.531158 28.423632 18.449999
-98.170158 35.027943 18.340908
-122.85603 49.107132 18.65
-122.87367 49.547531 18.443546
-134.73952 56.16436 18.543333
-150.91139 65.247162 18.116667
-151.80629 65.763832 18.15
-152.94432 66.459366 18.283333
-157.62402 69.687218 18.416666
-33.087589 -3.0093832 18.75
-34.300026 -2.3093834 18.85
-36.848103 -0.72278214 18.4
-38.580154 0.27721977 18.083332
-39.965794 1.077219 18.049999
-43.116817 2.8194828 18.150002
-43.842373 3.2961197 18.25
-44.69342 3.7553959 18.25
-45.495987 4.2700748 18.292856
-46.443226 4.7913036 18.327778
-47.269276 5.2938862 18.216667
-50.894379 7.3483524 18.216667
-52.17675 8.1272202 18.25
-53.475788 8.8772202 18.383335
-54.341816 9.3772202 18.049999
-54.731529 9.6022205 18.450001
-55.684155 10.15222 18.324999
-56.853291 10.827221 18.75
-57.589409 11.25222 18.549999
-98.551384 34.670692 18.333334
-123.09219 48.628471 18.53261
-123.12984 48.899559 18.150002
-135.24109 55.655556 18.57143
-135.29823 55.756596 18.175001
-151.05705 64.661537 18.190001
-158.09926 68.964066 18.674999
-82.927834 24.264786 18.25
-83.554146 24.279978 18.299999
-99.07251 33.701393 18.049999
-123.65882 47.649963 18.57
-123.77228 47.800152 18.289999
-135.78265 54.717548 18.577272
-135.87323 54.760666 18.275
-151.56 63.812614 18.150002
-31.360966 -7.0854511 18.549999
-32.185925 -6.6476545 18.483334
-63.565948 11.700556 18.049999
-83.801041 23.152349 18.15
-106.05791 36.002357 18.25
-123.93104 47.245178 18.349998
-124.47923 46.695652 18.550001
-136.14198 54.295174 18.099998
-152.10965 62.895515 18.157143
-84.077835 22.272928 18.35
-105.99809 35.505943 18.275
-124.64606 45.906708 18.299999
-124.70712 46.258118 18.464285
-152.57791 62.101028 18.18684
-84.751038 21.506901 18.15
-106.76147 33.9837 18.35
-125.07262 45.173752 18.438234
-152.90425 61.528759 18.183334
-125.54372 44.411934 18.129999
-125.51763 44.697098 18.85
-150.92975 56.48204 18.674999
-151.37625 56.847778 18.536955
-152.20932 57.355011 18.504053
-153.0412 57.841187 18.49754
-153.93132 58.344177 18.427969
-154.81085 58.852348 18.430489
-155.64426 59.3237 18.475925
-156.47655 59.788952 18.535715
-157.33388 60.256439 18.350002
-151.35832 55.739738 18.664286
-151.62317 55.814285 18.349998
-151.86307 54.865456 18.716667
-152.17505 54.878029 18.373528
-152.36725 53.992218 18.799999
-152.62888 54.080727 18.408333
-152.80475 53.234444 18.700001
-153.14099 53.144341 18.526926
-153.41724 52.173565 18.8375
-153.59114 52.333916 18.50769
-153.71307 51.661163 18.883335
-154.11826 51.479393 18.456671
-154.17975 50.852875 18.85
-154.64076 50.582932 18.464287
-154.77974 49.813644 18.85
-155.13374 49.768852 18.365789
-155.17975 49.120827 18.949999
-146.65491 37.386272 18.099998
-146.23529 36.913063 18.099998
-165.22783 37.717045 18.700001
-166.87328 38.667042 18.450001
-167.04648 38.76704 18.949999
-168.86513 39.817043 18.949999
-165.22292 37.425533 18.450001
-165.88196 37.855511 18.414288
-166.6321 38.313358 18.607141
-167.59393 38.852173 18.616665
-168.39999 39.356049 18.683332
-169.08833 39.830441 18.549999
-166.10617 36.145702 18.35
-166.06442 36.468002 18.65
-151.36143 27.084339 18.200001
-166.20015 35.699585 18.350002
-166.8231 34.50779 18.365385
-166.95213 33.770458 18.529999
-169.07782 31.048649 18.049999
-169.06442 31.271851 18.75
-169.32678 30.384094 18.616667
-169.41443 30.66563 18.4
-169.92673 29.128323 18.5875
-170.21475 28.279442 18.650002
-170.51921 27.685413 18.516666
-171.54121 26.581917 18.25
-142.5983 2.7125587 18.049999
-143.42101 3.1875534 18.049999
-144.15714 3.6125565 18.083332
-145.02315 4.1125526 18.1
-145.75928 4.5375519 18.099998
-146.68622 5.0892143 18.107143
-147.54701 5.5696983 18.135715
-148.21011 5.9525528 18.109999
-174.70284 21.305855 18.65
-175.20413 21.537552 18.450001
-140.21361 0.64294434 18.049999
-140.85899 1.169529 18.23889
-141.61064 1.6676331 18.194443
-142.43411 2.1302338 18.205557
-143.27628 2.6132507 18.237501
-144.17392 3.1834564 18.130001
-144.87674 3.5661469 18.15
-175.33838 21.433613 18.421429
-176.16347 21.975952 18.949999
-151.13269 5.3305054 18.85
-175.24271 20.042217 18.499998
-175.43942 20.230022 18.25
-138.63873 -2.2293091 18.25
-139.33165 -2.1294785 18.440001
-140.04233 -1.6603851 18.368183
-140.94096 -1.1399422 18.319231
-149.72935 4.3278389 18.4
-150.14346 4.6439056 18.25
-151.08951 5.005352 18.569998
-151.98714 5.6506042 18.275002
-175.7814 18.63768 18.449999
-152.63533 4.9278793 18.35
-153.72192 3.2458267 18.35
-177.27783 16.845833 18.65
-177.86443 16.0298 18.449999
-178.34227 14.573639 18.464287
-178.61443 14.730766 18.449999
-141.88873 -7.8584747 18.949999
-178.89302 13.448235 18.15
-181.02783 10.350639 18.449999
-144.73872 -12.794815 18.25
-146.32533 -15.342888 18.949999
-146.80214 -16.568722 18.75
-13.301292 134.06148 19.049999
-18.222576 131.93758 19.049999
-19.272575 130.11893 19.449999
-19.618103 129.58711 19.049999
-20.809177 127.65746 19.449999
-22.125847 125.37691 19.25
-22.48238 125.15938 19.75
-22.734177 124.32326 19.099998
-22.73238 124.72636 19.85
-23.022583 123.62373 19.049999
-23.37569 123.71213 19.65
-23.179756 121.75149 19.25
-23.857624 122.02739 19.375
-24.332386 121.95508 19.35
-82.266052 149.81107 19.264286
-82.823486 148.9122 19.783333
-83.419617 147.813 19.549999
-83.794617 147.16348 19.65
-84.415756 146.021 19.083334
-84.758011 145.29483 19.5
-85.319016 144.65648 19.716667
-86.044617 143.26636 19.949999
9.3234444 84.048676 19.109999
-6.3507233 93.300224 19.5
-71.99968 131.05009 19.678572
-72.27079 131.20331 19.43
-88.215439 140.43976 19.483334
8.9734421 83.442444 19.049999
8.7868385 83.319244 19.35
-6.8650169 92.009445 19.049999
-6.9165726 92.270142 19.349998
-72.467072 130.20555 19.35
-72.777977 130.33374 19.683331
-88.827629 139.44604 19.65
-7.3650169 91.143417 19.15
-7.4914932 91.524353 19.683332
-72.928818 129.45857 19.487499
-73.249031 129.42902 19.564285
-89.21096 138.7821 19.183334
-8.1114273 90.650589 19.799999
-73.476334 128.43524 19.370001
-73.796738 128.55304 19.504545
-89.827629 137.71399 19.549999
-8.1650162 89.757774 19.25
-8.4114265 90.130981 19.449999
-73.972397 127.59424 19.568182
-74.195587 127.82281 19.549999
-90.165436 137.06226 19.483334
-8.5150185 89.15155 19.65
-9.0267792 88.985146 19.49
-74.541885 126.65636 19.483335
-74.728119 126.85048 19.424999
-90.677628 136.24176 19.25
-9.4675064 88.06179 19.49
-74.971153 125.89061 19.450001
-75.232132 126.05414 19.550001
5.7075901 77.735825 19.874998
5.7368393 78.036484 19.949999
-9.8650169 86.813286 19.35
-10.019592 87.116982 19.392859
-75.463417 125.01852 19.424999
-75.712173 125.1227 19.383335
-91.927628 134.07669 19.25
5.210043 76.724052 19.65
5.1118355 76.953957 19.833334
-10.315018 86.033867 19.549999
-10.391571 86.251266 19.549999
-76.029282 124.10232 19.472223
-76.258629 124.22959 19.603334
-92.127625 133.73029 19.049999
4.8696117 76.277267 19.521429
4.7701721 76.362183 19.766666
-10.745018 85.289078 19.289999
-11.040672 85.326988 19.275002
-76.587418 123.18005 19.383335
-76.776886 123.30116 19.46739
4.3215332 75.356537 19.364285
4.2035065 75.380676 19.716667
-11.140018 84.604919 19.25
-11.276619 84.568321 19.533333
-76.949661 122.47643 19.578573
-77.243042 122.47363 19.559376
-93.24102 131.60182 19.65
3.8925133 74.587486 19.16818
3.7368393 74.572388 19.299999
-11.590015 83.8255 19.299999
-11.97662 83.355881 19.65
-77.549637 121.50316 19.61154
-77.724411 121.66017 19.449999
3.4134407 73.812241 19.15
3.1368408 73.533157 19.299999
-12.365017 82.483162 19.75
-12.383759 82.917366 19.35
-37.98777 97.103256 19.449999
-78.007591 120.74339 19.53261
-78.211784 120.82631 19.408619
3.0734406 73.223343 19.049999
2.9868393 73.273346 19.35
-3.9326744 76.438385 19.34375
-4.465313 76.754738 19.405556
-5.6589394 77.41272 19.511906
-6.4442825 77.85817 19.5
-7.0380058 78.229813 19.610001
-8.0803833 78.7659 19.534615
-12.671715 81.851944 19.65
-78.551758 119.83007 19.464287
-78.729568 119.94427 19.499996
-85.881973 124.08142 19.716667
-86.768234 124.49301 19.609999
-87.495422 125.25351 19.475
-88.400452 125.73141 19.177273
-89.537209 126.13129 19.440474
-2.5196781 74.598938 19.581579
-8.4546814 78.42749 19.621429
-13.218369 80.955116 19.5
-13.301617 81.060921 19.449999
-79.067711 118.89354 19.454762
-79.255455 119.03576 19.56282
-90.126564 125.30206 19.480883
-90.227882 125.82073 19.35
2.1571751 70.796326 19.410002
1.4212284 71.261635 19.749998
0.85251427 71.67659 19.9
-0.53818703 72.267822 19.316666
-1.5363522 72.805618 19.466667
-2.2935772 73.227402 19.349998
-2.9127026 73.902672 19.588097
-3.6093102 73.84848 19.049999
-8.3590565 76.821686 19.15
-9.2493992 77.267807 19.408825
-10.066965 77.545326 19.522726
-10.991318 78.072006 19.507143
-11.801888 78.517334 19.532352
-12.732861 79.029366 19.65
-13.570269 79.624191 19.585716
-14.310772 80.058472 19.640909
-79.4674 118.24177 19.383335
-80.004837 118.35136 19.509523
-80.959686 118.85317 19.45513
-81.719719 119.34264 19.462193
-82.630508 119.90057 19.506605
-83.458351 120.44586 19.4375
-84.320732 120.93222 19.544287
-84.904633 121.28088 19.49
-90.455444 124.68533 19.50588
-91.164673 124.94556 19.492105
-92.127602 125.4886 19.570833
-93.00824 125.95673 19.308619
-93.860336 126.46632 19.432856
-94.780922 126.96695 19.608063
-95.493225 127.46455 19.595455
-95.893211 109.80811 19.35
-98.497986 111.19651 19.299999
-99.097488 111.6581 19.349998
-99.963509 112.1581 19.525
-23.547066 67.11528 19.700001
-24.189373 67.391022 19.497057
-24.987589 67.804848 19.442308
-25.580383 68.107765 19.207144
-26.615957 68.733147 19.25
-27.753988 69.42868 19.616667
-28.558413 69.835381 19.549999
-29.338097 70.227791 19.469048
-30.234632 70.745407 19.483334
-30.680174 71.060379 19.4
-80.496994 99.895798 19.44655
-81.279709 100.51942 19.487499
-82.04422 100.93813 19.607143
-82.81517 101.37993 19.629999
-83.821922 102.03046 19.607143
-84.410622 102.41653 19.59
-90.244423 105.39208 19.049999
-90.50148 105.82685 19.540003
-91.39257 106.60345 19.699999
-92.218758 107.13242 19.75
-93.127075 107.74921 19.75
-94.273781 108.23804 19.2125
-94.623932 108.5621 19.427778
-95.58802 109.17003 19.550001
-96.346313 109.7233 19.799999
-97.665436 110.13849 19.4
-98.468147 110.74819 19.23
-99.07579 111.2735 19.405556
-99.801758 111.71831 19.27
-80.859245 99.189316 19.452082
-90.544426 104.87247 19.049999
-90.707001 105.19086 19.533335
-31.261871 69.952843 19.65
-80.754883 97.719368 19.536362
-80.941063 98.297974 19.433998
-91.154236 104.41625 19.35
-80.539352 96.401733 19.65
-80.650833 96.814911 19.415623
-116.63879 117.10904 19.549999
-117.40477 117.60901 19.540001
-118.3514 118.15556 19.457691
-119.20597 118.64172 19.38125
-120.05913 119.12793 19.461765
-120.88094 119.59949 19.485714
-121.70088 120.04127 19.408333
-127.75911 123.49472 19.560001
-128.78134 124.07279 19.488094
-129.5786 124.54601 19.574137
-130.45784 125.05762 19.515518
-131.27429 125.51974 19.504839
-132.21651 126.06573 19.489285
-132.76353 126.38019 19.5
-32.311871 68.134193 19.75
-80.857971 95.849854 19.60294
-81.080307 95.822708 19.423683
-116.85898 116.55028 19.494001
-127.84009 122.91793 19.483334
-128.56389 123.8208 19.049999
-129.42992 124.3208 19.35
-131.8548 125.72079 19.35
-32.825272 67.04496 19.049999
-32.86187 67.181564 19.75
-81.336311 95.004723 19.625
-81.601509 94.980247 19.4
-117.35078 115.66348 19.423681
-127.91175 121.25036 19.824999
-128.29393 122.10454 19.493242
-81.766602 94.242783 19.566668
-82.11657 94.109978 19.449999
-117.86241 114.82903 19.613638
-128.13495 121.26375 19.15
-128.52466 121.48875 19.35
-82.260498 93.353989 19.583332
-82.500916 93.404266 19.530003
-118.21275 114.14952 19.85
-82.797684 92.490189 19.5
-82.979843 92.441391 19.5
-118.91275 112.93709 19.575001
-119.36275 112.15767 19.049999
-119.86275 111.29164 19.25
-120.16275 110.77203 19.35
-120.92496 109.51852 19.083334
-121.34608 108.72243 19.216667
-121.86275 107.82754 19.449999
-122.49934 106.9249 19.049999
-123.18595 105.93568 19.049999
-123.39935 105.36606 19.15
-123.974 104.45076 19.209999
-104.60397 92.32061 19.25
-124.36275 103.49741 19.549999
-41.996204 54.63736 19.503847
-42.658539 55.021599 19.487501
-111.83577 94.994781 19.549999
-132.39717 106.98138 19.549999
-43.573349 54.428749 19.450001
-44.101089 54.733437 19.525002
-44.734001 55.109352 19.613638
-45.633511 55.560448 19.75
-50.699753 58.485451 19.366667
-51.093506 57.803452 19.412498
-51.574764 56.96991 19.450001
-90.036858 79.118279 19.35
-129.31616 101.5845 19.75
-52.102936 56.04509 19.485001
-90.69825 78.126038 19.440001
-129.76961 100.96104 19.621428
-52.599255 55.203144 19.546156
-91.199326 77.400642 19.525
-130.2966 100.11059 19.431818
-53.103939 54.321316 19.541668
-91.693016 76.610359 19.436365
-130.80685 99.224815 19.461111
-131.03044 99.148628 19.049999
-53.58432 53.495926 19.520002
-92.219345 75.717407 19.482433
-131.20483 98.589478 19.292858
-54.100197 52.603142 19.442593
-92.720848 74.880219 19.457548
-54.608463 51.737614 19.446297
-74.66655 63.373756 19.449999
-75.878983 64.073753 19.75
-93.242195 74.044662 19.455172
-55.095165 50.896412 19.409998
-93.758667 73.167473 19.416668
-55.604481 49.953888 19.399998
-94.228615 72.328133 19.471052
-94.6343 72.188599 19.200001
-134.9893 95.891708 19.949999
-135.12917 96.049446 19.216667
-56.121246 49.059875 19.444118
-94.73571 71.452965 19.461109
-135.52589 95.162285 19.949999
-135.64832 95.175232 19.275
-56.601082 48.264072 19.486843
-95.232407 70.602676 19.424999
-95.309296 71.019463 19.15
-136.20561 94.238365 19.403336
-57.104965 47.379555 19.520588
-95.773354 69.739532 19.473812
-120.67029 83.842979 19.174999
-134.89198 92.204636 19.588888
-135.24701 92.836823 19.445744
-136.05635 93.310143 19.429487
-136.52164 93.687584 19.624998
-46.80064 39.97226 19.65
-57.565842 46.577068 19.438
-96.277069 68.846741 19.477587
-107.27589 74.939743 19.461763
-121.01782 83.091003 19.700001
-135.37563 91.407135 19.496155
-135.3138 91.729683 19.083334
-42.130081 35.928558 19.65
-43.818832 36.903561 19.450001
-44.576603 37.341061 19.65
-45.637486 37.95356 19.75
-46.373604 38.378559 19.35
-47.210289 39.329422 19.444874
-53.734825 42.628563 19.449999
-53.994629 42.778561 19.85
-55.185421 43.466064 19.349998
-55.986492 43.928562 19.375
-56.679314 44.328564 19.15
-58.091675 45.661613 19.436207
-96.75705 68.041916 19.474998
-97.61731 68.021866 19.25
-99.322975 68.981888 19.35
-100.21706 69.493965 19.512499
-101.22352 70.142403 19.450001
-101.97054 70.51046 19.492857
-107.71104 74.278381 19.450001
-108.79553 74.533356 19.44091
-109.62674 75.002754 19.459091
-110.57019 75.586815 19.35
-111.3497 76.018501 19.386364
-112.29207 76.644447 19.450001
-112.93318 76.960709 19.383335
-115.03471 78.274101 19.494999
-121.66113 82.076775 19.5
-135.83194 90.614746 19.563044
-135.90044 90.713539 19.27
-42.613098 36.091957 19.299999
-43.228249 36.293156 19.383331
-43.955437 36.866959 19.449999
-44.766552 37.162052 19.450001
-45.860687 37.966957 19.549999
-46.415874 38.172024 19.483334
-47.289635 38.791958 19.530001
-53.440651 42.30476 19.516666
-54.261147 42.816963 19.674999
-55.201992 43.333511 19.534616
-55.984535 43.811958 19.529999
-56.86256 44.261154 19.625
-57.768539 44.841957 19.549999
-97.175255 67.362495 19.512501
-98.048195 67.635551 19.429998
-98.844948 68.095558 19.099998
-99.53775 68.495552 19.5
-100.49873 69.03112 19.416664
-101.15822 69.488861 19.224998
-102.43894 70.170555 19.549999
-102.65545 70.295555 19.949999
-108.04994 73.72348 19.421431
-109.16261 74.144836 19.309999
-110.01332 74.601357 19.424999
-110.96596 75.15136 19.599998
-111.60379 75.596596 19.400002
-112.49979 76.094658 19.424999
-113.24023 76.522156 19.370001
-115.44526 77.589149 19.488461
-121.81782 81.70536 19.949999
-136.33437 89.731194 19.61923
-136.47708 89.764748 19.200001
-115.933 76.74366 19.478794
-136.84702 88.826378 19.654764
-137.06848 88.821587 19.35
-116.29559 75.999107 19.51129
-117.48882 76.31926 19.547371
-117.55074 76.49614 19.294445
-137.35764 87.953239 19.659094
-137.51091 88.050812 19.513409
-117.83627 75.761612 19.510004
-118.17649 75.49231 19.43
-119.07609 76.254173 19.699999
-119.9331 76.829803 19.450003
-120.96974 77.174271 19.65
-122.00289 77.751511 19.400002
-137.68861 87.387772 19.564285
-138.03519 87.306938 19.513638
-139.24045 87.871338 19.335716
-140.09433 88.716225 19.549999
-140.91275 88.76535 19.583334
-141.97823 89.736534 19.625
-142.84947 90.037476 19.51
-143.41641 90.295517 19.75
-144.47899 90.805077 19.65
-145.21033 91.608368 19.549999
-146.06726 91.904152 19.542307
-146.88051 92.295517 19.469999
-148.02069 93.254021 19.65
-148.46591 93.549561 19.65
-149.69911 93.853554 19.469999
-150.68214 94.444206 19.516666
-151.10072 94.685875 19.35
-137.03156 84.197823 19.521666
-137.58917 84.62326 19.497828
-138.52029 85.180756 19.591465
-139.2049 85.578972 19.580559
-141.2321 86.678825 19.049999
-136.68604 82.710274 19.541489
-137.33766 83.352646 19.53928
-152.73837 92.28273 19.216667
-153.89307 92.949402 19.75
-154.8457 93.499405 19.949999
-155.06889 93.512794 19.25
-156.27464 94.324402 19.700001
-156.83757 94.649399 19.65
-158.4464 95.462799 19.35
-159.08922 95.949402 19.349998
-162.46674 97.899399 19.35
-162.86313 98.012794 19.549999
-166.88345 100.4494 19.15
-168.44229 101.34941 19.65
-171.94481 103.08291 19.299999
-173.42863 104.1128 19.15
-174.81427 104.9128 19.449999
-137.15598 82.047409 19.527138
-137.33237 82.233376 19.49
-137.65845 81.179039 19.496269
-137.83237 81.367348 19.85
-138.11194 80.417595 19.541798
-138.34236 80.484001 19.41
-138.61905 79.512138 19.482834
-138.90111 79.51622 19.4375
-139.12004 78.651779 19.514706
-140.3618 78.786263 19.549999
-140.75397 79.157013 19.449999
-139.50916 78.063057 19.85
-141.28369 78.557037 19.522974
-141.78665 78.858353 19.569998
-141.77782 78.333633 19.549999
-142.27641 78.403381 19.427776
-152.17371 83.527412 19.65
-121.85661 64.638184 19.449999
-124.45468 66.138184 19.75
-125.40731 66.688187 19.85
-152.46323 82.701042 19.445837
-79.724045 39.573929 19.49
-80.247581 39.924366 19.517241
-81.117516 40.46521 19.504057
-82.021301 40.984928 19.441668
-82.827858 41.473236 19.514704
-83.727219 41.96022 19.389997
-84.60244 42.473396 19.313633
-85.519211 42.990696 19.4
-86.330086 43.444614 19.434851
-87.195045 43.966072 19.465385
-88.12011 44.480415 19.556671
-88.885704 44.940582 19.557316
-89.563431 45.161114 19.544735
-97.88475 50.102245 19.444874
-98.390205 50.610474 19.480301
-99.28447 51.097233 19.535183
-100.10287 51.568356 19.608065
-100.93655 52.06443 19.658337
-101.74533 52.577209 19.75
-102.68813 53.100494 19.734615
-103.59486 53.618446 19.749998
-104.23602 54.132954 19.5875
-105.297 54.535667 19.373077
-106.16332 55.269741 19.333332
-106.99209 55.691978 19.396154
-107.55253 56.099297 19.607141
-116.38103 60.322163 19.15
-116.45844 60.793201 19.488461
-117.40343 61.451305 19.633335
-118.2794 62.176987 19.807142
-119.18958 62.607624 19.549999
-120.46373 63.025719 19.5875
-120.6945 63.579594 19.371429
-121.81632 64.136551 19.378571
-122.57957 64.535973 19.424999
-123.65758 65.100624 19.550001
-124.49824 65.701447 19.511292
-125.14972 66.186974 19.407894
-126.11007 66.561272 19.469353
-142.1758 75.310997 19.5
-142.60576 75.549614 19.549999
-143.72183 76.299835 19.383335
-144.43355 76.633759 19.450001
-145.24289 77.33197 19.15
-146.43211 77.672165 19.949999
-148.01674 78.702515 19.525
-152.93332 81.891716 19.45727
-80.234756 38.529335 19.25
-80.39299 38.993748 19.557693
-89.942596 44.533058 19.277273
-98.257652 49.566093 19.503336
-116.4489 59.937954 19.583334
-116.87354 60.094105 19.5625
-126.85782 65.775818 19.519232
-141.99577 73.956139 19.099998
-142.49339 74.725235 19.505169
-142.93587 75.461151 19.166668
-143.9594 75.875038 19.35
-144.60855 76.33065 19.700001
-145.72769 77.092255 19.625
-146.46381 77.517258 19.200001
-147.55304 78.030655 19.65
-148.11096 78.364319 19.23
-153.33081 81.155785 19.471622
-80.925941 38.1036 19.450003
-90.475044 43.649776 19.32143
-117.34352 59.215084 19.609999
-127.29379 65.040695 19.489998
-142.05214 73.458466 19.488773
-142.52318 74.006599 19.462
-153.77275 80.274452 19.5
-81.144562 37.553501 19.949999
-91.413864 42.766571 19.270002
-92.258232 43.261971 19.468424
-92.813469 43.632374 19.425001
-110.45764 53.856766 19.3125
-110.96547 54.135525 19.25
-118.09084 57.960682 19.15
-127.97216 63.890194 19.5
-128.6095 64.26458 19.461365
-129.35686 64.663994 19.480555
-142.60214 72.493698 19.486366
-142.78236 72.793694 19.4
-69.346474 29.148384 19.17
-70.148643 29.573992 19.225
-70.885078 29.98061 19.207144
-71.925705 30.663893 19.19286
-72.77227 31.114719 19.190001
-73.300911 31.339104 19.170002
-81.943802 36.340626 19.542858
-93.2761 42.941071 19.375
-111.52244 53.937477 19.25
-118.03104 57.464279 19.449999
-118.20424 57.564278 19.25
-130.01682 64.347153 19.475
-143.05435 71.714233 19.454166
-71.202744 29.273245 19.599998
-73.86087 30.519241 19.199999
-82.03923 35.337242 19.383335
-82.439095 35.486313 19.537498
-93.707787 42.093342 19.699999
-118.58773 56.400047 19.4
-130.71843 63.369068 19.410002
-143.57222 70.806229 19.4629
-74.336761 29.494957 19.375
-82.957962 34.212605 19.85
-82.731163 35.005424 19.449999
-94.263603 41.230671 19.725
-112.42603 51.572414 19.949999
-130.99377 62.812126 19.85
-144.05673 69.92926 19.550001
-74.627617 28.941196 19.700001
-94.7761 40.342995 19.85
-119.82922 54.749687 19.174999
-131.51149 61.52652 19.311113
-144.47722 69.338173 19.380003
-75.294121 28.286774 19.049999
-120.35588 53.937538 19.216665
-132.03804 60.512535 19.450001
-75.880066 26.921883 19.299999
-120.90486 53.026665 19.4
-132.43208 59.795933 19.606249
-96.335907 38.241325 19.25
-121.38065 52.148304 19.521429
-133.03896 58.755516 19.464287
-97.185905 36.769085 19.049999
-121.81797 51.380123 19.612499
-133.5162 58.006824 19.368181
-40.628227 2.729847 19.449999
-41.494255 3.229847 19.549999
-97.469246 36.278343 19.550001
-122.30325 50.523426 19.644119
-133.91133 57.395168 19.522728
-31.439449 -3.3547182 19.518749
-32.236103 -2.8921471 19.525759
-33.269459 -2.467247 19.450003
-33.961788 -2.0235415 19.316666
-34.904446 -1.5562754 19.424999
-35.628159 -0.84976864 19.33
-36.542255 -0.43748379 19.227777
-37.533546 0.17333031 19.208334
-38.364975 0.62769508 19.183334
-39.319183 1.2279549 19.25
-40.051186 2.0182047 19.400002
-40.82555 2.5459805 19.455263
-41.647007 3.0486078 19.441666
-42.484573 3.3012333 19.376667
-43.487263 3.6142101 19.413637
-44.435287 4.1580544 19.427776
-45.386414 4.6027126 19.549999
-46.175285 5.1087513 19.403334
-46.912025 5.7196751 19.365789
-47.614685 6.5058937 19.442307
-48.49791 6.9991674 19.406252
-49.347305 7.4029646 19.375
-50.573792 7.6636295 19.190001
-51.302231 8.1419334 19.200001
-52.157272 8.6009502 19.33
-53.328239 9.2827816 19.549999
-54.093014 9.5414944 19.349998
-54.884636 10.037029 19.549999
-55.811043 10.557455 19.512499
-56.689453 10.944326 19.216667
-57.352806 11.462029 19.450001
-58.415405 11.92156 19.5
-59.193329 12.574141 19.435713
-60.029072 13.2766 19.608334
-97.943497 35.156891 19.299999
-122.88103 49.063831 19.65
-122.85399 49.567833 19.450001
-134.70598 56.121902 19.456978
-157.4977 69.655991 19.525
-32.66663 -3.1802578 19.5625
-33.3507 -2.7651043 19.610001
-33.99855 -2.3872166 19.599998
-35.122749 -1.834383 19.9
-36.786499 -0.816082 19.699999
-37.677525 -0.35938263 19.75
-38.796658 0.40221786 19.849998
-39.705986 0.92721939 19.85
-40.102394 1.040617 19.449999
-43.6031 3.1772175 19.849998
-46.460987 4.827219 19.85
-51.74374 7.8772202 19.35
-53.129379 8.6772194 19.15
-54.341816 9.3772202 19.049999
-57.199699 11.02722 19.15
-58.23893 11.62722 19.15
-60.665592 12.624111 19.949999
-86.734756 27.271006 19.049999
-98.54599 34.156212 19.335716
-104.49809 38.104019 19.65
-123.14729 48.509338 19.423332
-123.01763 49.027225 19.049999
-135.31018 55.464497 19.428572
-157.98186 68.867416 19.483334
-99.009865 33.376549 19.6
-123.6608 47.641766 19.292856
-135.83797 54.57473 19.544121
-160.5255 68.661682 19.450001
-31.486404 -6.9360514 19.85
-32.040169 -6.6452007 19.6
-99.442604 32.760365 19.75
-123.84443 47.195175 19.35
-124.56619 46.665039 19.469999
-160.75499 68.197571 19.716667
-124.62632 45.898056 19.435713
-124.69582 46.274433 19.396154
-161.11389 67.442543 19.85
-106.48828 34.056908 19.25
-125.0686 45.087364 19.456251
-125.46763 44.783703 19.15
-125.47523 44.470547 19.624998
-151.40068 56.806141 19.486986
-152.24236 57.30854 19.50946
-153.05608 57.811157 19.460608
-153.93449 58.342098 19.419491
-154.79233 58.852676 19.506521
-155.64304 59.357208 19.54722
-156.4198 59.81049 19.606249
-157.15619 60.230843 19.849998
-151.68033 55.670879 19.327776
-152.11589 54.883118 19.544445
-152.63292 54.044571 19.56875
-153.1179 53.158646 19.633333
-153.54169 52.433044 19.487499
-154.07004 51.536232 19.49
-154.64514 50.563454 19.608334
-154.87975 49.640438 19.049999
-155.01961 49.798172 19.576668
-165.08926 37.637043 19.629999
-166.78667 38.617039 19.099998
-167.04648 38.76704 19.449999
-165.64043 37.773815 19.549999
-166.40811 38.206039 19.516666
-167.90089 39.087143 19.299999
-168.50711 39.437134 19.5
-169.22495 39.793839 19.35
-166.07854 36.083546 19.370001
-166.34792 35.476978 19.299999
-166.70216 34.6134 19.6875
-167.01981 33.613232 19.5
-168.22961 32.117779 19.349998
-169.27292 30.410728 19.325001
-169.92863 29.114998 19.58
-170.14481 28.200573 19.483334
-170.34482 27.854164 19.349998
-174.67783 21.349159 19.15
-175.13197 21.495884 19.783333
-175.94026 21.962555 19.949999
