# .PCD v0.7 - Point Cloud Data file format
VERSION 0.7
FIELDS x y z
SIZE 4 4 4
TYPE F F F
COUNT 1 1 1
WIDTH 1428
HEIGHT 1
VIEWPOINT 0 0 0 1 0 0 0
POINTS 1428
DATA ascii
-103.10811 -48.415752 -0.27121213
-103.58226 -49.260788 -0.25666669
-104.08579 -50.167553 -0.23571432
-104.58192 -50.995716 -0.23636365
-105.1015 -51.914467 -0.24333335
-105.664 -52.78204 -0.38703704
-106.12604 -53.582321 -0.39722228
-106.92218 -54.453236 -0.19482757
-107.42453 -55.072426 -0.085897431
-108.07957 -55.899296 -0.050000004
-108.44298 -56.728733 -0.050000001
-108.78316 -57.91795 -0.15000001
-60.450146 24.797281 -0.64000005
-60.822212 24.143322 -0.6452381
-61.350147 23.238436 -0.54500002
-61.775146 22.502314 -0.54285717
-62.333317 21.525537 -0.69499999
-62.832123 20.664169 -0.55740732
-63.249802 19.870361 -0.51111108
-66.857925 13.275143 -0.07941176
-66.897919 13.126852 -0.53205127
-73.077957 2.4314499 -0.43024686
-76.176949 -2.8423271 -0.75
-76.732208 -3.5840645 -0.77999997
-77.163544 -4.3511696 -0.69999999
-77.580803 -5.2072296 -0.76666665
-78.078812 -6.3364372 -0.89615387
-78.609863 -7.2276802 -0.87142855
-78.725052 -7.8807945 -0.84999996
-82.623749 -14.111 -0.53852451
-88.981071 -25.138542 -0.46709412
-91.533493 -29.807461 -0.50512195
-92.105263 -30.530983 -0.49791664
-92.608932 -31.401794 -0.49410257
-93.110886 -32.270226 -0.48908627
-93.610336 -33.135769 -0.49393949
-94.106979 -33.995426 -0.4847593
-94.531754 -34.924118 -0.48628318
-98.328827 -41.321617 -0.37962964
-98.409737 -41.457199 -0.59672892
-99.084656 -42.776775 -0.94523823
-99.576706 -43.56601 -0.90588266
-100.08038 -44.392429 -0.87777776
-100.7701 -45.336349 -0.72948718
-101.32576 -46.021667 -0.60222936
-101.80479 -46.877384 -0.53597581
-102.29918 -47.733864 -0.4869864
-102.78094 -48.625057 -0.44411772
-103.31497 -49.445015 -0.36570251
-103.74176 -50.364494 -0.32714283
-104.2482 -51.201046 -0.27586213
-104.7124 -52.098915 -0.22850466
-105.24321 -52.973217 -0.16444442
-105.71246 -53.843498 -0.11744192
-106.17526 -54.730209 -0.088461578
-106.67338 -55.563698 -0.071874976
-106.95039 -56.493496 -0.075000003
-107.35374 -57.242119 -0.1
-62.32431 18.95113 -0.79999995
-65.90728 12.723013 -0.28333336
-66.02581 12.622591 -0.54090917
-72.213791 1.8987141 -0.4314371
-74.924316 -2.8727093 -0.75
-78.031006 -8.3536758 -0.79285723
-81.750961 -14.619169 -0.53799987
-88.124588 -25.640472 -0.45504203
-90.704666 -30.128273 -0.5294643
-93.859146 -35.580315 -0.50846988
-97.436905 -41.836571 -0.32818171
-97.56498 -41.987503 -0.61893934
-98.241745 -43.131676 -0.93400013
-98.789246 -44.166306 -0.89583349
-99.255409 -44.898697 -0.84444433
-99.764015 -45.756706 -0.81981134
-100.22269 -46.657028 -0.70324695
-100.7233 -47.462502 -0.65000004
-101.20518 -48.36586 -0.56866658
-101.74843 -49.251823 -0.48673472
-102.22363 -50.004135 -0.43571442
-102.77782 -51.000259 -0.3758066
-103.19588 -51.836872 -0.31909099
-103.69189 -52.667065 -0.25930235
-104.20432 -53.576645 -0.16578948
-104.73561 -54.407379 -0.10000002
-105.23428 -55.288376 -0.053448267
-105.69515 -55.982693 -0.05666668
-106.09824 -56.627525 -0.090000004
-106.67432 -57.865318 -0.1
-55.311878 28.297026 -0.35000002
-56.934368 26.046797 -0.58999997
-57.250027 25.490034 -0.63750005
-57.718586 24.675138 -0.65666664
-58.056908 24.031385 -0.59444451
-61.429008 18.341848 -0.57000005
-61.791065 17.59853 -0.59285712
-62.25425 16.855312 -0.48428574
-62.803391 16.077559 -0.45937499
-63.232479 15.148727 -0.36764696
-63.701481 14.248734 -0.44512194
-64.182175 13.402163 -0.61896545
-64.958153 12.380865 -0.44444451
-65.15535 12.114285 -0.54393941
-71.416336 1.36236 -0.48333362
-71.594421 0.27262306 -0.64444447
-72.031158 -0.50162125 -0.63000005
-72.56987 -1.406435 -0.70294118
-73.034531 -2.2245064 -0.69999999
-73.629387 -3.1520462 -0.74444443
-73.961876 -4.005724 -0.66666669
-74.53688 -5.0016479 -0.85000002
-74.989647 -5.7858887 -0.66111118
-75.454735 -6.5914288 -0.65000004
-75.911873 -7.3832283 -0.56
-76.51812 -8.4332809 -0.55000001
-77.148399 -8.9106674 -0.6964286
-77.466492 -10.02033 -0.56111109
-78.090111 -11.025576 -0.64130431
-78.572876 -11.829681 -0.72500002
-79.021255 -12.768827 -0.43124998
-79.515617 -13.587582 -0.46875
-80.003159 -14.454142 -0.33461538
-80.881775 -15.121796 -0.51328129
-87.212715 -26.337156 -0.47485882
-87.530136 -27.406689 -0.49999994
-88.026688 -28.267738 -0.5
-88.530182 -29.138813 -0.5
-89.03083 -30.007961 -0.49591839
-89.737823 -30.612471 -0.51105261
-92.971069 -36.120384 -0.48702136
-93.027817 -36.929424 -0.49314716
-93.551819 -37.812305 -0.48252425
-94.133018 -38.624466 -0.48137248
-94.570702 -39.496521 -0.46971849
-95.034149 -40.39513 -0.45157072
-95.539787 -41.267719 -0.42967039
-96.16745 -42.155769 -0.38981494
-96.700882 -42.565071 -0.68467712
-97.412552 -43.645096 -0.89864898
-97.877563 -44.537079 -0.87131137
-98.416153 -45.353317 -0.80070412
-98.83876 -46.218384 -0.78913051
-99.400635 -47.116142 -0.69590157
-99.940872 -48.071987 -0.6419999
-100.36397 -48.837399 -0.56981146
-100.86213 -49.696705 -0.49754086
-101.41376 -50.627838 -0.42222232
-101.78602 -51.439453 -0.36818185
-102.38074 -52.295288 -0.2696079
-102.86906 -53.1506 -0.22301584
-103.36751 -54.091866 -0.14016396
-103.86797 -54.90461 -0.093750045
-104.28729 -55.735107 -0.067021251
-104.89529 -56.672863 -0.072222225
-105.8614 -57.757305 -0.050000001
-106.2717 -59.36795 -0.050000001
-54.778862 28.22023 -0.40000001
-55.123283 27.913143 -0.48421052
-55.648064 26.925861 -0.45277777
-56.146896 26.150738 -0.45374995
-56.623116 25.338943 -0.36304349
-57.080296 24.362045 -0.37000003
-57.509144 23.214762 -0.44705883
-57.905807 22.5336 -0.39411762
-58.310753 21.389168 -0.45681819
-58.757198 20.624557 -0.43688518
-59.278023 19.753178 -0.46774179
-59.777969 18.881935 -0.51265055
-60.312515 18.086971 -0.49424773
-60.908234 17.247761 -0.49109593
-61.394852 16.397247 -0.47048184
-61.89706 15.514758 -0.47235298
-62.558342 14.830968 -0.48024684
-63.133358 13.86124 -0.5374999
-63.62273 13.138084 -0.47275874
-64.10054 12.219753 -0.46764705
-64.49791 11.704708 -0.52419353
-70.747864 0.87954903 -0.36020404
-71.304611 0.17662811 -0.48986503
-71.825089 -0.68357086 -0.49685311
-72.351303 -1.5151558 -0.50630254
-72.877274 -2.3812332 -0.51440674
-73.381363 -3.2383804 -0.51956517
-73.892349 -4.1030254 -0.4806931
-74.383591 -4.9542427 -0.46818176
-74.873688 -5.8402882 -0.42872339
-75.391022 -6.713995 -0.4147059
-75.879234 -7.5676174 -0.3909637
-76.394096 -8.4342384 -0.37499997
-76.896896 -9.3281116 -0.50092596
-77.393364 -10.167299 -0.52090901
-77.893021 -11.027637 -0.50233638
-78.398087 -11.902954 -0.49660191
-78.895294 -12.76536 -0.51018518
-79.393539 -13.62484 -0.51037741
-79.90155 -14.504738 -0.50566041
-80.311134 -15.211826 -0.52794117
-86.52887 -26.772383 -0.15000001
-87.192268 -28.121424 -0.050000001
-87.967796 -28.5397 -0.47083336
-88.175278 -28.824053 -0.34999999
-89.311249 -30.799948 -0.48333335
-92.50029 -36.315178 -0.48333332
-93.025284 -37.22451 -0.94999999
-93.522644 -38.08596 -0.61315781
-94.425262 -39.649372 -0.57352942
-94.902054 -40.475197 -0.85357159
-95.334259 -41.345863 -0.68728817
-95.724434 -42.344788 -0.85806477
-96.072311 -43.290596 -0.90384632
-96.473679 -44.210876 -0.88898313
-96.970261 -45.090721 -0.83939391
-97.538223 -45.882324 -0.80735278
-97.968246 -46.763477 -0.71125025
-98.530502 -47.583797 -0.60466665
-99.032272 -48.532448 -0.60294086
-99.508095 -49.320488 -0.52865177
-100.00735 -50.221611 -0.45126575
-100.47751 -51.10355 -0.39000022
-100.96599 -51.959133 -0.32261923
-101.5248 -52.853119 -0.24436617
-101.99338 -53.671516 -0.19827583
-102.57316 -54.640038 -0.12343755
-102.91869 -55.3937 -0.093333378
-103.50279 -56.212097 -0.054999985
-104.09129 -56.941387 -0.066666678
-103.98247 -57.802887 -0.050000001
-69.94558 0.59511948 -0.1351852
-70.439621 -0.24986649 -0.13275863
-70.920525 -1.1063843 -0.19736841
-71.468826 -2.0304756 -0.12142858
-71.990952 -2.8919735 -0.19999999
-72.59095 -3.9312057 -0.175
-73.019302 -4.7231236 -0.30000001
-73.447647 -5.5150471 -0.1
-73.959251 -6.20117 -0.1
-74.93425 -7.889925 -0.050000001
-76.836044 -11.583927 -0.050000001
-94.453918 -42.365635 -0.94999999
-94.644463 -42.912342 -0.94583368
-95.12365 -43.776649 -0.91666698
-95.684601 -44.69725 -0.88205111
-96.115738 -45.553589 -0.84108859
-96.666977 -46.469193 -0.77471906
-97.11908 -47.266273 -0.71777785
-97.636795 -48.16024 -0.63202244
-98.060226 -48.924568 -0.50158727
-98.638756 -49.861881 -0.49166667
-99.109467 -50.726967 -0.42821786
-99.632874 -51.554943 -0.37619072
-100.15494 -52.480217 -0.29757294
-100.59962 -53.347969 -0.23387092
-101.08162 -54.195419 -0.16525427
-101.64839 -55.047112 -0.094927594
-102.10262 -55.862537 -0.064062484
-102.64685 -56.706696 -0.067142837
-103.20005 -57.581039 -0.066666678
-103.12984 -58.526096 -0.050000001
-93.346642 -42.727791 -0.94999993
-93.839294 -43.486427 -0.92800033
-94.26088 -44.26313 -0.90522385
-94.735016 -45.147503 -0.87054789
-95.309502 -46.026764 -0.81055003
-95.772018 -46.884037 -0.75918359
-96.286026 -47.762978 -0.67441875
-96.786766 -48.625755 -0.62398404
-97.240952 -49.504242 -0.58559328
-97.774033 -50.384911 -0.50686282
-98.256058 -51.197075 -0.42226893
-98.774338 -52.059864 -0.36359233
-99.259567 -52.984138 -0.30192322
-99.744751 -53.815601 -0.21842097
-100.30843 -54.705952 -0.15357144
-100.73393 -55.525677 -0.092168719
-101.30794 -56.37048 -0.074444428
-101.73594 -57.098465 -0.056666676
-91.98259 -42.618504 -0.94999999
-92.397659 -43.129425 -0.95000011
-92.932617 -43.999481 -0.92903256
-93.405533 -44.784248 -0.88820159
-93.882736 -45.679085 -0.8535291
-94.383018 -46.542534 -0.80148488
-94.858627 -47.340271 -0.73245627
-95.388199 -48.243515 -0.65526325
-95.915291 -49.132263 -0.57765955
-96.407608 -49.993538 -0.54805821
-96.946487 -50.86425 -0.47900003
-97.429321 -51.716469 -0.39754093
-97.909927 -52.622482 -0.34140629
-98.398621 -53.473076 -0.28125009
-98.897903 -54.328369 -0.20739123
-99.439011 -55.219673 -0.13431373
-99.918671 -56.024609 -0.097916737
-100.34732 -56.865463 -0.08529409
-100.83795 -57.663101 -0.089999996
-101.24539 -58.728806 -0.050000004
-101.43885 -59.463894 -0.083333336
-90.789764 -42.152489 -0.94999999
-90.92205 -42.810165 -0.94999999
-91.477119 -43.548717 -0.95000035
-92.112411 -44.483864 -0.91708833
-92.56945 -45.319801 -0.85808045
-93.02906 -46.16626 -0.84142816
-93.572029 -47.02198 -0.77427173
-94.04715 -47.864052 -0.70000035
-94.581665 -48.75235 -0.65446466
-95.047913 -49.643044 -0.57372898
-95.577393 -50.517521 -0.52037042
-96.03788 -51.361675 -0.46010095
-96.505127 -52.217552 -0.35900909
-97.048996 -53.121975 -0.2978633
-97.584106 -53.968533 -0.26074383
-98.05806 -54.820126 -0.20641018
-98.500656 -55.65239 -0.12377048
-99.013344 -56.50803 -0.089285783
-99.482712 -57.338707 -0.053703681
-99.938553 -58.073624 -0.050000004
-100.73129 -58.871677 -0.050000001
-100.76836 -60.235901 -0.050000001
-90.176849 -43.199181 -0.95000017
-90.677071 -44.089493 -0.93813592
-91.221565 -44.999096 -0.90454525
-91.688461 -45.839062 -0.84799963
-92.172096 -46.663147 -0.81311429
-92.696899 -47.568665 -0.76294118
-93.165489 -48.405346 -0.6700002
-93.687943 -49.303627 -0.61470592
-94.199326 -50.161911 -0.55392164
-94.714157 -50.98362 -0.51779664
-95.147232 -51.838562 -0.43828818
-95.669128 -52.737091 -0.37000015
-96.168976 -53.585167 -0.28749999
-96.642509 -54.454212 -0.2238317
-97.201569 -55.300243 -0.1738531
-97.685333 -56.180496 -0.10284555
-98.152031 -57.012165 -0.08421056
-98.648117 -57.870201 -0.069999978
-99.113548 -58.68396 -0.050000004
-99.721954 -59.223469 -0.050000001
-100.03894 -60.772503 -0.050000001
-89.429123 -42.995781 -0.94999999
-89.606522 -43.836365 -0.81666672
-90.041428 -44.503365 -0.93235284
-90.405777 -45.41703 -0.93518555
-90.91993 -46.347534 -0.89556944
-91.369034 -47.157505 -0.84999943
-91.857117 -47.95327 -0.83124965
-92.40863 -48.857338 -0.75642198
-92.866501 -49.724258 -0.69803178
-93.358421 -50.60611 -0.66153884
-93.849617 -51.483253 -0.57709694
-94.315414 -52.33728 -0.50639099
-94.836853 -53.197609 -0.46504411
-95.369156 -54.114769 -0.35902765
-95.845932 -54.932652 -0.33066666
-96.345367 -55.830967 -0.25593218
-96.824104 -56.671402 -0.179197
-97.300781 -57.531509 -0.12499999
-97.805786 -58.373611 -0.10595243
-98.302368 -59.164696 -0.064285703
-98.734024 -59.989258 -0.050000008
-99.480927 -60.806004 -0.050000001
-88.632538 -44.466049 -0.94999999
-89.029617 -45.199463 -0.91521746
-89.418022 -45.94928 -0.93636405
-89.98465 -46.842033 -0.89927536
-90.460205 -47.722061 -0.84903806
-90.885498 -48.505787 -0.82083297
-91.449142 -49.433601 -0.7439025
-91.937653 -50.260704 -0.67583352
-92.457092 -51.110004 -0.63839293
-92.958275 -52.016945 -0.55254245
-93.466019 -52.86552 -0.47235289
-93.970093 -53.68483 -0.4307338
-94.480621 -54.59684 -0.35322589
-94.898987 -55.425236 -0.30846158
-95.489059 -56.309273 -0.21413039
-95.947563 -57.137886 -0.18407397
-96.420532 -57.995529 -0.13230087
-96.924561 -58.895576 -0.10333339
-97.400826 -59.696182 -0.068604633
-97.849289 -60.679924 -0.058333337
-97.883682 -61.439487 -0.050000001
-87.507462 -44.867363 -0.80999994
-88.131256 -45.715546 -0.9274196
-88.563538 -46.380188 -0.89909095
-89.08857 -47.373047 -0.89794523
-89.583099 -48.205086 -0.83759624
-90.038673 -49.016922 -0.81634605
-90.523544 -49.891369 -0.75
-91.050247 -50.748947 -0.655469
-91.57634 -51.647743 -0.6262241
-92.075745 -52.519596 -0.5616442
-92.514343 -53.33783 -0.47241369
-93.030815 -54.263626 -0.42130435
-93.5793 -55.110699 -0.33715606
-94.051987 -55.90947 -0.28166676
-94.585655 -56.779152 -0.20199996
-95.004074 -57.617249 -0.14326921
-95.587685 -58.501419 -0.11451617
-96.088364 -59.373974 -0.078813568
-96.479156 -60.133461 -0.059999991
-96.899429 -61.014706 -0.050000001
-97.847076 -61.576096 -0.050000001
-85.174835 -43.027126 -0.94999999
-86.038239 -44.72258 -0.94999999
-86.749954 -45.344799 -0.93947369
-87.266296 -46.176483 -0.90121979
-87.698151 -46.903358 -0.89142871
-88.230377 -47.814499 -0.86624986
-88.793762 -48.679344 -0.82787579
-89.192596 -49.427605 -0.78301895
-89.72242 -50.370457 -0.71206903
-90.209839 -51.259506 -0.63230097
-90.71553 -52.137672 -0.57931054
-91.230583 -53.041832 -0.51724136
-91.74778 -53.800694 -0.42222235
-92.22934 -54.71463 -0.38125002
-92.774078 -55.593918 -0.31766921
-93.206146 -56.41 -0.28472224
-93.679016 -57.290131 -0.20916663
-94.182373 -58.168282 -0.15086204
-94.654922 -59.012344 -0.12499999
-95.207176 -59.88121 -0.054081608
-95.664032 -60.642563 -0.050000004
-96.301155 -61.198467 -0.050000001
-84.528427 -42.707512 -0.94999999
-85.536476 -44.980785 -0.94999993
-85.842438 -45.77055 -0.93709701
-86.432129 -46.707054 -0.9077782
-86.828453 -47.428284 -0.89383572
-87.32737 -48.348274 -0.84404737
-87.878517 -49.190376 -0.81557328
-88.332283 -49.979858 -0.77741921
-88.884842 -50.851215 -0.69909102
-89.321793 -51.730194 -0.60263199
-89.874695 -52.683029 -0.55081308
-90.362122 -53.533302 -0.50846148
-90.850143 -54.29565 -0.45087707
-91.3302 -55.176254 -0.37982449
-91.839737 -56.131088 -0.29560012
-92.31855 -56.937256 -0.23508775
-92.896332 -57.778664 -0.16123596
-93.359039 -58.672318 -0.12889908
-93.858368 -59.484848 -0.11521742
-94.337097 -60.37328 -0.076666676
-94.670685 -61.054405 -0.070000008
-84.439011 -45.530415 -0.94999993
-84.96228 -46.164227 -0.93947399
-85.524521 -47.177078 -0.90573764
-85.950974 -47.925789 -0.88913
-86.496948 -48.823502 -0.84042525
-87.016434 -49.720936 -0.78008121
-87.46463 -50.486198 -0.76317835
-87.951874 -51.375278 -0.68545467
-88.491203 -52.225517 -0.59571451
-89.004089 -53.175507 -0.52386373
-89.488983 -54.031643 -0.4711864
-89.931976 -54.818718 -0.41799995
-90.468552 -55.702293 -0.35796466
-91.002487 -56.628624 -0.27615389
-91.484314 -57.439529 -0.2289855
-91.957748 -58.311729 -0.15796459
-92.473045 -59.180344 -0.11516859
-92.894905 -59.94268 -0.086000048
-93.569099 -60.825665 -0.057407398
-93.909645 -61.578465 -0.050000004
-83.126755 -45.479755 -0.94999999
-83.677139 -45.961037 -0.95000011
-84.09481 -46.747375 -0.93409127
-84.675682 -47.642578 -0.90374988
-85.125656 -48.395706 -0.88118243
-85.639313 -49.30854 -0.83653814
-86.134315 -50.135441 -0.75803596
-86.610336 -50.992779 -0.73648655
-87.110947 -51.898422 -0.67053592
-87.624336 -52.756195 -0.58040029
-88.14476 -53.602978 -0.5200935
-88.59938 -54.484444 -0.45887089
-89.089333 -55.318008 -0.40107906
-89.580154 -56.25737 -0.30544561
-90.108353 -57.156021 -0.23018014
-90.631866 -57.963406 -0.19370359
-91.176468 -58.775738 -0.12790702
-91.690628 -59.712795 -0.10050508
-92.069458 -60.44828 -0.087931052
-92.562355 -61.209335 -0.07
-79.726585 -41.64048 -0.94999999
-80.243744 -41.486233 -0.94999999
-81.430588 -44.091911 -0.94999999
-81.623398 -44.595863 -0.95000035
-82.242477 -45.485394 -0.92843157
-82.768387 -46.390747 -0.90853626
-83.2677 -47.21954 -0.85326064
-83.742561 -48.073318 -0.83888841
-84.247925 -48.932964 -0.77631557
-84.743614 -49.802345 -0.73549616
-85.22113 -50.615139 -0.71328139
-85.747887 -51.505955 -0.72058833
-86.268143 -52.439705 -0.62927949
-86.706924 -53.248245 -0.55697697
-87.237846 -54.121414 -0.50087702
-87.749924 -54.988937 -0.43467733
-88.271149 -55.879993 -0.36317819
-88.75798 -56.762623 -0.31161633
-89.260849 -57.606003 -0.22796603
-89.785187 -58.466286 -0.17758612
-90.214569 -59.218361 -0.14459462
-90.795578 -60.05854 -0.089999959
-91.274902 -60.726082 -0.050000004
-79.064568 -41.993835 -0.94999993
-79.931313 -43.745079 -0.94999999
-80.360115 -44.637779 -0.94999993
-80.913162 -45.141167 -0.95000046
-81.37075 -46.033195 -0.91202521
-81.90731 -46.904823 -0.88139492
-82.388931 -47.709137 -0.84593439
-82.890427 -48.552849 -0.80540508
-83.429962 -49.483009 -0.75068492
-83.8405 -50.300232 -0.68464595
-84.402359 -51.119476 -0.64697027
-84.904205 -52.089699 -0.64595979
-85.439491 -52.970387 -0.58939421
-85.855309 -53.694641 -0.54185194
-86.370941 -54.606258 -0.47777769
-86.842117 -55.49221 -0.40833336
-87.372345 -56.360149 -0.35000005
-87.880341 -57.242088 -0.28888899
-88.39064 -58.05262 -0.19814807
-88.938217 -58.905487 -0.13000001
-89.375519 -59.778664 -0.089393988
-89.961327 -60.622829 -0.076315783
-90.11792 -61.188793 -0.050000001
-63.102783 -16.449842 -0.12368421
-63.5401 -17.289522 -0.41893938
-64.023392 -17.887079 -0.49554968
-64.521164 -18.748655 -0.50894743
-65.023842 -19.621498 -0.50618565
-65.522598 -20.483789 -0.49512824
-66.019005 -21.346241 -0.50459182
-66.519249 -22.215702 -0.49646461
-67.010887 -23.157572 -0.48826087
-67.629295 -24.087406 -0.44946799
-68.227417 -24.685432 -0.55606055
-68.713531 -25.554657 -0.54781425
-69.209274 -26.420506 -0.55581409
-69.714806 -27.269297 -0.58160609
-70.17762 -28.180855 -0.54385465
-70.67733 -29.053501 -0.53305084
-71.224709 -29.90287 -0.54512185
-71.66478 -30.808889 -0.50656557
-72.141823 -31.669611 -0.50729728
-72.639801 -32.732635 -0.48105267
-78.212265 -42.4426 -0.94999993
-78.698776 -44.110268 -0.94999999
-79.585083 -44.91576 -0.95000023
-80.023056 -45.679424 -0.9236846
-80.505768 -46.464268 -0.89842051
-80.991478 -47.338326 -0.8403222
-81.545914 -48.269085 -0.83296233
-82.006332 -49.065735 -0.79244572
-82.515594 -49.938782 -0.71486515
-82.9981 -50.80584 -0.63248217
-83.487022 -51.667072 -0.60779828
-84.026146 -52.590782 -0.55725831
-84.532867 -53.420059 -0.61407781
-85.041443 -54.251038 -0.52323949
-85.491241 -55.137077 -0.45666656
-86.018524 -56.009514 -0.38596499
-86.525162 -56.838722 -0.34338844
-87.0858 -57.728539 -0.26779664
-87.497803 -58.568729 -0.19380949
-87.967575 -59.426476 -0.087837882
-88.473877 -60.287899 -0.085555539
-89.150726 -60.85643 -0.064285725
-62.297722 -16.859947 -0.050000004
-62.817825 -17.787416 -0.49358979
-66.446693 -23.933046 -0.514
-66.79837 -24.494066 -0.35136977
-71.838165 -33.413132 -0.47712541
-72.232269 -33.40995 -0.94999999
-77.648941 -42.791901 -0.94999999
-77.555832 -43.355637 -0.94999993
-78.429489 -44.568851 -0.94999993
-78.64917 -45.259644 -0.94705921
-79.144905 -46.149033 -0.92169833
-79.711449 -46.981079 -0.88831699
-80.109612 -47.796432 -0.82586181
-80.68924 -48.75288 -0.78249991
-81.155197 -49.5634 -0.75597024
-81.650864 -50.447666 -0.68106091
-82.153313 -51.286659 -0.62535238
-82.63784 -52.125732 -0.56920028
-83.184067 -53.079002 -0.51742423
-83.67157 -53.942146 -0.54895848
-84.20211 -54.740585 -0.501724
-84.666115 -55.646004 -0.43384621
-85.136124 -56.491817 -0.37439024
-85.636627 -57.371655 -0.30892864
-86.118103 -58.195419 -0.24482763
-86.623123 -59.054733 -0.17808987
-87.172928 -59.860241 -0.083846182
-87.614273 -60.793533 -0.088235281
-87.972473 -61.272766 -0.64999998
-61.672943 -17.220659 -0.050000001
-61.94606 -18.301128 -0.5120371
-65.587166 -24.429308 -0.54354835
-65.85717 -24.877035 -0.37727275
-70.967361 -33.918995 -0.46554622
-70.716728 -34.28495 -0.79999995
-76.41404 -43.552979 -0.92500001
-76.76239 -43.94524 -0.92777771
-77.184067 -44.999229 -0.94999987
-77.839767 -45.72242 -0.93787915
-78.380066 -46.651093 -0.88749993
-78.799393 -47.488571 -0.87299949
-79.317657 -48.322647 -0.81170183
-79.854752 -49.237461 -0.77307695
-80.313324 -50.084053 -0.73151273
-80.794968 -50.946152 -0.66259277
-81.276108 -51.776764 -0.62134153
-81.790474 -52.696785 -0.53648669
-82.308128 -53.567909 -0.47147626
-82.801979 -54.398296 -0.53738743
-83.28717 -55.232376 -0.47424227
-83.781647 -56.107609 -0.40080643
-84.274597 -56.993797 -0.34814826
-84.764862 -57.892609 -0.28777787
-85.322418 -58.707748 -0.21696426
-85.81263 -59.487923 -0.16341464
-86.188858 -60.447109 -0.06363634
-86.844116 -61.358406 -0.15666667
-87.048706 -61.806099 -0.61666667
-61.106171 -18.79668 -0.47268051
-60.850697 -19.196491 -0.85000002
-64.705696 -24.938251 -0.44999999
-64.852013 -25.026968 -0.30000001
-70.09906 -34.422321 -0.46914884
-70.186279 -34.591194 -0.86249995
-75.72702 -43.863029 -0.94999999
-75.967392 -44.30159 -0.88333327
-76.504593 -45.434822 -0.94999987
-76.935768 -46.236652 -0.91000026
-77.357315 -47.072514 -0.89285719
-77.941528 -47.997597 -0.84890079
-78.402092 -48.814682 -0.80376321
-78.834023 -49.718758 -0.75721651
-79.426483 -50.598686 -0.70200002
-79.904678 -51.411568 -0.63739496
-80.405167 -52.299728 -0.5648762
-80.921753 -53.208466 -0.49201682
-81.4328 -54.079491 -0.44397563
-81.913559 -54.946854 -0.49473679
-82.429558 -55.789825 -0.42499989
-82.927002 -56.615826 -0.37820509
-83.447342 -57.481152 -0.31666675
-83.936508 -58.33815 -0.26981986
-84.436577 -59.237724 -0.19374995
-84.91423 -60.036217 -0.15465114
-85.381264 -60.930618 -0.063513502
-86.035133 -61.802925 -0.25476193
-86.20192 -62.294979 -0.62777776
-59.464577 -18.495661 -0.050000001
-60.233315 -19.307165 -0.42571416
-60.331093 -19.496492 -0.8653847
-63.93264 -25.384565 -0.57499999
-63.966347 -25.572954 -0.41000006
-69.249374 -34.916786 -0.47227079
-69.358635 -35.069035 -0.84090912
-70.149582 -36.404099 -0.47789115
-70.641075 -37.157887 -0.48169401
-71.137543 -37.993744 -0.46450785
-71.668152 -38.944439 -0.47686562
-72.051781 -39.778973 -0.50051022
-72.627113 -40.648499 -0.48961359
-73.140167 -41.473969 -0.50634515
-73.520187 -42.400162 -0.50312501
-75.191055 -45.134712 -0.92777771
-75.595413 -45.925087 -0.94500011
-76.106926 -46.769333 -0.90517265
-76.653381 -47.795898 -0.60583317
-77.180939 -48.356342 -0.49072585
-77.730064 -49.221382 -0.46652541
-78.239288 -50.081657 -0.41134471
-78.745941 -50.93885 -0.39234251
-79.23381 -51.812244 -0.34139782
-79.478119 -52.69133 -0.44266072
-80.071724 -53.636555 -0.48586193
-80.581894 -54.544777 -0.41754955
-81.031548 -55.473686 -0.45491773
-81.520485 -56.239456 -0.39606041
-82.043732 -57.085651 -0.33086964
-82.552444 -58.002987 -0.28589749
-83.057785 -58.819878 -0.21028361
-83.5952 -59.691135 -0.14603968
-84.027283 -60.553799 -0.16111116
-84.530006 -61.416142 -0.055882338
-85.219925 -62.438545 -0.20333335
-85.222832 -62.86026 -0.39999998
-93.297592 -76.096161 -0.1
-59.372856 -19.812254 -0.39150944
-59.473076 -19.991867 -0.86111128
-62.897743 -25.982073 -0.68000001
-63.173836 -26.05361 -0.61666667
-68.393127 -35.4104 -0.44285715
-68.560318 -35.529942 -0.87999994
-69.184052 -36.718506 -0.38529414
-72.74955 -43.004421 -0.48333332
-73.76506 -44.764832 -0.94999999
-74.145782 -45.58424 -0.94999993
-74.671883 -46.335484 -0.93636376
-75.233047 -47.277454 -0.93500006
-75.86467 -48.3461 -0.46735525
-75.939095 -48.590363 -0.52777773
-78.498779 -52.770527 -0.089999996
-78.597778 -53.132332 -0.39935064
-79.180267 -54.187866 -0.45636341
-79.754913 -55.078979 -0.42006788
-80.160263 -55.88578 -0.44117633
-80.660774 -56.791004 -0.36959454
-81.166443 -57.630905 -0.3119719
-81.765732 -58.44722 -0.23796991
-82.205635 -59.299309 -0.16166666
-82.779358 -60.098396 -0.13813564
-83.212616 -61.046654 -0.15303034
-83.608887 -61.829109 -0.050000004
-84.436424 -63.131481 -0.44166672
-84.623833 -63.206089 -0.48333332
-91.458359 -75.310516 -0.050000001
-91.318649 -75.968521 -0.1
-58.448524 -20.35424 -0.44384617
-58.6502 -20.466944 -0.85909092
-62.00573 -26.497066 -0.64999998
-62.280136 -26.83901 -0.45000002
-67.516586 -35.915295 -0.45645157
-67.902145 -35.90995 -0.75
-68.075829 -37.310787 -0.43999997
-71.899437 -43.543297 -0.45046955
-72.064308 -44.430794 -0.4623377
-72.558365 -45.282528 -0.4718934
-73.073654 -46.149376 -0.50224721
-73.586525 -46.98938 -0.50465125
-74.100998 -47.864346 -0.48710683
-74.785858 -48.694714 -0.43815768
-75.249863 -48.988281 -0.46724135
-77.605667 -53.286175 -0.088461533
-77.714958 -53.609459 -0.37146115
-78.35791 -54.67131 -0.43000007
-78.857941 -55.575558 -0.3492001
-79.350632 -56.391342 -0.41369861
-79.849434 -57.267826 -0.33503935
-80.309875 -58.144096 -0.25333336
-80.841278 -58.994591 -0.1600917
-81.314796 -59.863243 -0.10238101
-81.710365 -60.55806 -0.076315768
-82.409004 -61.636566 -0.15000001
-82.728943 -61.990715 -0.050000001
-83.513062 -63.708839 -0.41
-83.682312 -63.749687 -0.5346154
-91.738754 -76.996155 -0.050000001
-57.638718 -20.806753 -0.47988504
-61.312912 -26.897066 -0.64999998
-61.587914 -27.373381 -0.39999998
-66.646164 -36.412594 -0.48414633
-66.473206 -36.734947 -0.85000002
-67.327301 -37.73246 -0.46818185
-76.81292 -53.743866 -0.066666678
-76.853264 -54.090702 -0.35102552
-77.520828 -55.158703 -0.32169819
-77.963371 -56.075413 -0.28703704
-78.498741 -56.891235 -0.35000014
-79.019699 -57.772148 -0.28599998
-79.472992 -58.637222 -0.20867765
-79.901833 -59.520176 -0.13846152
-80.442604 -60.297337 -0.10694448
-80.916687 -61.074028 -0.094444431
-81.537262 -62.476662 -0.050000001
-81.771408 -62.832214 -0.5
-82.582825 -64.194771 -0.48571432
-82.733017 -64.29776 -0.56999999
-56.774891 -21.316078 -0.50813949
-60.68708 -28.413094 -0.94999999
-61.15448 -28.922659 -0.72500002
-61.614754 -29.686533 -0.45000002
-65.855415 -36.854904 -0.51499999
-65.953583 -37.03495 -0.90000004
-66.471176 -38.193939 -0.42499998
-75.835548 -54.308144 -0.050000004
-75.991516 -54.632278 -0.3530302
-76.592926 -55.754478 -0.28958336
-77.111977 -56.581379 -0.24080454
-77.683609 -57.419281 -0.28367352
-78.104431 -58.27417 -0.24749996
-78.578278 -59.133591 -0.18071885
-79.060104 -59.945053 -0.15820886
-79.527512 -60.835667 -0.138
-79.98909 -61.721645 -0.10294124
-80.403336 -62.55661 -0.071212105
-80.837082 -63.313919 -0.050000001
-81.773392 -64.668983 -0.40000004
-81.83606 -64.815628 -0.52857143
-84.280548 -69.678169 -0.38333333
-89.070099 -76.573921 -0.15000001
-89.396896 -77.539948 -0.050000001
-89.673691 -78.419373 -0.050000001
-90.596893 -79.618401 -0.15000001
-90.887085 -80.721039 -0.050000001
-55.933281 -21.804653 -0.52887326
-55.884445 -22.294699 -0.050000001
-56.529984 -23.346127 -0.050000004
-57.113319 -24.356491 -0.28333333
-57.477127 -25.093296 -0.31
-57.95945 -25.888704 -0.42499998
-58.446655 -26.665897 -0.34999999
-59.042377 -27.789385 -0.69999999
-59.464355 -28.195272 -0.89999998
-59.909447 -29.266203 -0.75
-60.284447 -29.91572 -0.64999998
-65.631897 -38.606327 -0.40714285
-75.066437 -54.752197 -0.050000004
-75.144379 -55.128059 -0.35752681
-75.73967 -56.18494 -0.30161294
-76.250809 -57.118584 -0.22977525
-76.75737 -57.910362 -0.26610172
-77.202675 -58.749878 -0.24136688
-77.714981 -59.637276 -0.18185833
-78.197334 -60.394844 -0.15707959
-78.752609 -61.368004 -0.10000005
-79.170143 -62.187225 -0.085526377
-79.740341 -62.98822 -0.054347821
-80.857338 -65.076263 -0.55000001
-80.936005 -65.335258 -0.51249999
-83.614357 -70.024292 -0.30000001
-86.444275 -74.625847 -0.25
-86.812561 -75.16375 -0.2
-57.324646 -25.389183 -0.050000001
-57.674644 -25.995399 -0.15000001
-64.792252 -39.183472 -0.51999998
-74.232162 -55.23386 -0.050000001
-74.264038 -55.656364 -0.35588261
-74.859238 -56.675049 -0.27602741
-75.367462 -57.559486 -0.22884613
-75.893517 -58.42593 -0.28529423
-76.376038 -59.271461 -0.24752064
-76.84774 -60.136467 -0.1877951
-77.314796 -60.968281 -0.13785045
-77.868385 -61.825821 -0.091025688
-78.325951 -62.669594 -0.088983074
-78.788979 -63.473648 -0.082142845
-79.449371 -64.576996 -0.61666667
-80.056808 -65.429108 -0.79999989
-80.614426 -66.01889 -0.48125002
-81.062454 -66.94429 -0.44666663
-81.595703 -67.742195 -0.44142854
-82.109833 -68.638405 -0.35250005
-82.501801 -69.47731 -0.39500001
-83.087059 -70.432037 -0.41315788
-83.587395 -71.117599 -0.25
-84.188049 -72.11795 -0.25714287
-84.563232 -72.994461 -0.19666666
-85.141136 -73.950569 -0.16818182
-85.21418 -74.845284 -0.2
-86.027649 -75.770905 -0.21666667
-86.378235 -76.511475 -0.25
-86.684937 -77.1427 -0.2
-86.831833 -78.097115 -0.25
-63.865585 -39.65176 -0.4277778
-73.204483 -55.827202 -0.050000004
-73.438911 -56.165565 -0.36435923
-73.986214 -57.193108 -0.29880959
-74.461639 -58.060009 -0.25943401
-75.010666 -58.882114 -0.27649575
-75.523773 -59.73204 -0.21541353
-75.987495 -60.634178 -0.17551705
-76.484932 -61.448814 -0.13086954
-77.016838 -62.337563 -0.087974757
-77.507759 -63.133339 -0.069298223
-77.98304 -63.970581 -0.058333319
-78.343903 -64.695618 -0.5
-78.942108 -65.978378 -0.91666663
-79.312378 -66.773041 -0.83333337
-79.872047 -67.57576 -0.75833338
-80.362061 -68.563881 -0.6500001
-80.944855 -69.30056 -0.58846158
-81.351898 -70.291306 -0.55000001
-81.762024 -71.093735 -0.46111113
-82.364502 -71.759491 -0.41666666
-82.850967 -72.682076 -0.33000001
-83.972031 -73.743797 -0.25
-84.021362 -74.379257 -0.15000001
-84.318909 -75.044624 -0.25
-87.022018 -79.026535 -0.15000001
-63.034225 -40.198471 -0.55000001
-72.612694 -56.168861 -0.050000001
-72.590584 -56.666939 -0.32342651
-73.124153 -57.689232 -0.24827591
-73.616455 -58.619553 -0.21868682
-74.160454 -59.414532 -0.25540543
-74.619148 -60.253716 -0.21608688
-75.199066 -61.126842 -0.17282607
-75.654129 -61.980778 -0.12099998
-76.163383 -62.815941 -0.090579778
-76.630592 -63.606339 -0.071739107
-77.183372 -64.655518 -0.050000008
-77.013168 -65.290718 -0.050000001
-78.403198 -66.26973 -0.9357143
-78.917503 -67.077988 -0.86666667
-79.308891 -67.882385 -0.78846157
-79.809425 -68.833954 -0.76111114
-80.299263 -69.692375 -0.69499999
-80.742294 -70.478302 -0.62857139
-81.396774 -71.39444 -0.60555559
-81.9627 -72.363541 -0.54999995
-82.395996 -73.014038 -0.44999996
-83.011787 -73.980621 -0.45000002
-83.313591 -74.903351 -0.34999999
-83.506233 -75.687027 -0.30000001
-83.828644 -76.828781 -0.25
-62.272121 -40.638474 -0.31000003
-71.21151 -56.958599 -0.175
-71.736214 -57.174194 -0.35689649
-72.202293 -58.160667 -0.26973686
-72.835701 -59.096889 -0.23021974
-73.314957 -59.871788 -0.23823528
-73.723892 -60.772324 -0.22529411
-74.27462 -61.623817 -0.1702247
-74.683945 -62.422222 -0.11707323
-75.307281 -63.299294 -0.074489772
-75.702316 -64.147514 -0.077272706
-76.193558 -65.071098 -0.050000004
-76.518562 -65.63401 -0.050000001
-77.120354 -67.076363 -0.89999998
-77.818565 -67.885681 -0.85000002
-78.12281 -68.662659 -0.85000002
-78.916168 -69.253464 -0.79999995
-80.13327 -70.994873 -0.625
-80.253365 -71.502892 -0.55000001
-80.760071 -72.48053 -0.5
-82.479286 -76.491631 -0.28333336
-82.647148 -77.049042 -0.25
-84.103371 -78.171295 -0.25
-61.163696 -41.205284 -0.45000002
-70.762321 -57.223938 -0.2557143
-70.768005 -57.688286 -0.29516128
-71.438477 -58.686222 -0.28720933
-71.892342 -59.551186 -0.22199999
-72.373169 -60.402626 -0.25642204
-72.904007 -61.216896 -0.19782606
-73.348114 -62.113377 -0.14024393
-73.855804 -63.012367 -0.10421694
-74.331017 -63.880642 -0.061111093
-74.874031 -64.715836 -0.054651137
-75.18985 -65.292625 -0.050000008
-75.97998 -66.551178 -0.94999999
-76.325302 -67.265945 -0.93333334
-77.024452 -68.132477 -0.87222219
-77.379166 -69.024628 -0.7833333
-77.949707 -69.946167 -0.70000005
-78.432175 -70.868484 -0.63000005
-78.839905 -71.626129 -0.53571427
-79.432434 -72.381004 -0.44999999
-79.977531 -73.625137 -0.44999999
-80.207603 -74.223625 -0.34999999
-82.331123 -78.501671 -0.25
-83.850739 -79.933716 -0.15000001
-60.757915 -41.535786 -0.25
-69.993477 -58.205078 -0.31913581
-70.515366 -59.150898 -0.24852943
-71.037842 -59.982235 -0.21849315
-71.58371 -60.930191 -0.22524749
-72.032318 -61.705532 -0.19380948
-72.545135 -62.63887 -0.13333333
-73.024208 -63.463985 -0.090000063
-73.583748 -64.280617 -0.090350889
-73.922119 -65.129456 -0.049999993
-74.631767 -65.708862 -0.050000004
-75.143646 -66.985931 -0.94999999
-75.777115 -67.649803 -0.92499995
-76.098114 -68.70578 -0.79999995
-76.424904 -69.671799 -0.64999998
-77.091415 -70.326225 -0.64999998
-77.448105 -71.044044 -0.60000002
-78.104813 -72.281487 -0.60000002
-78.215096 -73.372505 -0.55000001
-79.709717 -74.761261 -0.44999999
-79.801697 -75.920578 -0.34999999
-80.939621 -76.591515 -0.30000001
-80.985916 -77.238365 -0.25
-81.151703 -78.258858 -0.15000001
-59.427177 -42.130882 -0.57500005
-69.124992 -58.702465 -0.31689653
-69.671906 -59.70303 -0.21250002
-70.106758 -60.570709 -0.17394367
-70.680336 -61.400787 -0.2035211
-71.143143 -62.258221 -0.19999997
-71.722931 -63.134972 -0.13554218
-72.18924 -63.932739 -0.096666738
-72.687065 -64.728439 -0.073076911
-73.106461 -65.664085 -0.050000008
-73.572281 -66.930908 -0.94999999
-74.023521 -67.43248 -0.90999997
-74.66378 -68.321449 -0.82500005
-75.017807 -69.367973 -0.81666672
-75.534241 -70.209122 -0.75
-76.241371 -70.793907 -0.70999998
-76.438942 -71.896118 -0.55000007
-77.405289 -72.569878 -0.55000001
-77.422272 -73.599297 -0.5
-78.325394 -74.463539 -0.44999999
-78.299072 -75.517952 -0.34999999
-79.805298 -76.726814 -0.25
-58.276344 -42.737579 -0.5
-68.25367 -59.206818 -0.30066663
-68.812698 -60.208389 -0.25983602
-69.312355 -61.016518 -0.16733335
-69.791115 -61.862698 -0.21547624
-70.344307 -62.70256 -0.15989012
-70.776016 -63.567654 -0.11461543
-71.331467 -64.502106 -0.083333321
-71.772057 -65.271172 -0.062499985
-72.285126 -66.172928 -0.11428573
-73.062469 -66.647903 -0.94999999
-73.169647 -68.433533 -0.94999999
-73.62455 -68.921448 -0.875
-74.161156 -69.650871 -0.8125
-74.614502 -70.486099 -0.72500002
-75.211418 -71.249977 -0.67000002
-75.356255 -72.020844 -0.64999998
-77.167252 -74.824257 -0.48333335
-77.442856 -75.434944 -0.34999999
-57.850029 -43.099182 -0.64999998
-65.267021 -56.945786 -0.34999999
-65.462555 -57.217793 -0.44999999
-66.203323 -58.29892 -0.41000003
-66.66214 -59.112206 -0.44374996
-67.335274 -59.688362 -0.29161483
-67.89209 -60.668297 -0.19393939
-68.40377 -61.558781 -0.15333332
-68.965546 -62.420921 -0.17909092
-69.446617 -63.285057 -0.14285718
-69.871025 -64.078636 -0.10849059
-70.428398 -65.010551 -0.069999985
-70.935242 -65.828148 -0.061764691
-71.433289 -66.376076 -0.050000004
-72.102486 -67.635162 -0.94999999
-72.542892 -68.347954 -0.93749994
-73.045921 -69.059235 -0.91000003
-74.009842 -70.488792 -0.75
-58.700993 -47.573093 -0.55000001
-59.900993 -49.651554 -0.85000002
-60.850281 -51.135757 -0.45000002
-61.20118 -51.746403 -0.62142861
-61.646534 -52.608246 -0.31666666
-62.700993 -54.501297 -0.050000001
-63.750992 -56.319946 -0.85000002
-64.682228 -57.155117 -0.37222221
-64.919502 -57.574963 -0.52999997
-65.552643 -58.611916 -0.4392857
-66.091095 -59.460941 -0.38414639
-66.583649 -60.260933 -0.25266671
-67.11956 -61.113842 -0.20156251
-67.59581 -62.103374 -0.16499998
-68.089386 -62.831802 -0.17839503
-68.536804 -63.79055 -0.12333337
-69.055862 -64.617928 -0.10000004
-69.52874 -65.440117 -0.09615384
-70.073029 -66.299652 -0.049999993
-70.532349 -67.09417 -0.25
-70.942497 -68.276001 -0.93333334
-71.443275 -68.968369 -0.88749993
-71.953148 -69.812202 -0.79285723
-72.388985 -70.770264 -0.6833334
-72.890823 -71.596748 -0.58846164
-72.975998 -72.298119 -0.5
-75.74382 -75.492126 -0.34999999
-54.892387 -42.914856 -0.61923081
-55.371422 -43.72834 -0.5333333
-55.686371 -44.265892 -0.62142861
-59.291695 -49.618439 -0.84999996
-59.309071 -50.426315 -0.77499998
-60.855434 -52.292927 -0.66764694
-60.958176 -53.082638 -0.57666671
-61.35952 -54.077797 -0.4375
-61.855701 -55.014992 -0.37222221
-62.4944 -55.857754 -0.44999999
-62.989594 -56.572598 -0.55952382
-63.665375 -57.448589 -0.48076925
-64.196823 -58.298813 -0.47333336
-64.650856 -59.143681 -0.38488379
-65.178406 -60.075233 -0.26463407
-65.681557 -60.823784 -0.25999999
-66.218704 -61.572407 -0.18478264
-66.849945 -62.644627 -0.14642863
-67.13504 -63.327122 -0.20729159
-67.726631 -64.210716 -0.12738098
-68.203407 -65.073425 -0.098611169
-68.692383 -65.93779 -0.077272721
-69.228889 -66.763489 -0.099999972
-69.752892 -67.897362 -0.86818177
-70.255157 -68.511795 -0.88157886
-70.635895 -69.232437 -0.86250007
-71.270668 -70.384399 -0.75999999
-71.811249 -71.065331 -0.69615382
-72.195656 -71.61319 -0.75
-73.214394 -72.911041 -0.55000001
-49.699745 -35.882469 -0.47499996
-49.96888 -36.261135 -0.43749997
-50.520542 -37.20414 -0.49000001
-50.922211 -37.899849 -0.55000001
-52.968941 -41.64489 -0.44999999
-53.486263 -42.500908 -0.52999997
-53.830547 -42.937233 -0.85000002
-55.34343 -44.630348 -0.75
-56.656792 -47.552429 -0.80999994
-56.905548 -48.26329 -0.85000002
-59.128433 -50.713432 -0.81666672
-60.835869 -53.470798 -0.54999995
-61.238373 -54.167957 -0.52999997
-61.752213 -55.057953 -0.31153849
-62.171452 -55.784096 -0.48076922
-62.685875 -56.675095 -0.30416667
-63.240036 -57.634937 -0.39166671
-63.810863 -58.623646 -0.22499999
-64.293823 -59.460155 -0.26818183
-64.437729 -60.648243 -0.32933882
-64.797653 -61.206886 -0.2
-65.313232 -62.177994 -0.21956527
-65.915306 -63.138218 -0.12391306
-66.375786 -63.854294 -0.2007463
-66.881477 -64.723648 -0.12538467
-67.310104 -65.559494 -0.079166658
-67.958977 -66.504395 -0.057999995
-68.286102 -67.124985 -0.050000004
-68.68045 -68.358017 -0.68000001
-69.251228 -69.146622 -0.9416666
-69.850487 -69.974571 -0.81000006
-70.42334 -70.803101 -0.71842098
-70.923836 -71.643661 -0.60714293
-71.388565 -72.348602 -0.53571433
-71.815353 -73.487823 -0.55000001
-49.112968 -36.156624 -0.5404762
-58.491592 -52.543736 -0.48333335
-63.513966 -61.041969 -0.28604645
-63.860886 -61.630295 -0.23923075
-64.485176 -62.717911 -0.21052632
-64.972198 -63.517185 -0.16282055
-65.473671 -64.324493 -0.16428575
-65.95681 -65.192696 -0.11956527
-66.481964 -66.071747 -0.11756759
-66.829567 -66.905525 -0.070000008
-67.569588 -67.476807 -0.050000004
-68.110336 -68.737221 -0.94999993
-68.629204 -69.581017 -0.89117652
-68.908447 -70.426842 -0.77173913
-69.125351 -71.403603 -0.67500001
-69.80217 -72.167549 -0.63333338
-70.545738 -72.488792 -0.55000001
-48.254799 -36.661579 -0.56818181
-57.860336 -52.974174 -0.35000002
-58.015259 -53.465366 -0.31
-58.549809 -54.011234 -0.30000001
-62.685795 -61.490593 -0.23437499
-63.046215 -62.184532 -0.20882353
-63.555218 -63.122795 -0.16290323
-64.131699 -64.085617 -0.15312503
-64.66494 -64.88726 -0.17549026
-65.101471 -65.696251 -0.12441862
-65.566628 -66.664726 -0.070833325
-65.994965 -67.394119 -0.050000008
-66.784859 -68.424751 -0.94999999
-67.204544 -69.22168 -0.93000001
-67.461952 -70.064178 -0.90000004
-68.13121 -70.951149 -0.80555558
-68.695999 -71.884949 -0.65434778
-68.880707 -72.52153 -0.42083341
-47.489548 -37.09597 -0.54166675
-56.809959 -53.53772 -0.31
-57.663689 -54.17643 -0.34999999
-57.20747 -54.786236 -0.94999999
-61.871849 -62.149113 -0.28209874
-62.287712 -62.805477 -0.20000003
-62.732048 -63.602459 -0.1526316
-63.339706 -64.524818 -0.098275855
-63.715485 -65.338455 -0.14250003
-64.267471 -66.254524 -0.10090911
-64.688141 -67.056473 -0.069999985
-65.283066 -67.835114 -0.050000008
-66.060425 -68.919991 -0.94999999
-66.425453 -69.652252 -0.9416666
-66.757011 -70.759857 -0.89166665
-67.213928 -71.467926 -0.74500006
-67.668816 -72.396729 -0.66212118
-68.083176 -72.955315 -0.40454555
-46.601177 -37.6087 -0.54310346
-55.85537 -54.20433 -0.39000002
-56.165848 -54.848759 -0.34999999
-56.514648 -55.186234 -0.40000001
-60.328049 -61.991234 -0.1
-60.887718 -62.580441 -0.34819818
-61.368828 -63.265347 -0.15476193
-61.760311 -64.189064 -0.11097563
-62.480743 -65.061745 -0.12419356
-62.836658 -65.831924 -0.14565223
-63.50256 -66.718216 -0.12142858
-63.844666 -67.497574 -0.076923072
-64.320267 -68.565964 -0.50000006
-64.799957 -69.466812 -0.94500011
-65.415291 -70.23896 -0.9181819
-66.068985 -70.959824 -0.86250001
-66.491264 -71.857544 -0.74130434
-66.976891 -72.85022 -0.62142867
-67.239914 -73.458603 -0.36086959
-45.720398 -38.143372 -0.60000002
-55.291763 -54.468136 -0.18333334
-55.816681 -55.127323 -0.52500004
-56.471832 -56.712067 -0.050000001
-59.208427 -61.251995 -0.25
-59.683167 -62.294266 -0.22999997
-59.861435 -62.908043 -0.27142856
-60.62339 -63.771744 -0.17413795
-60.999153 -64.624596 -0.11129031
-61.53862 -65.480316 -0.10384615
-61.952477 -66.289032 -0.11842106
-62.453762 -67.158791 -0.083333321
-63.11322 -68.086723 -0.057142869
-63.423805 -68.996101 -0.25714287
-63.882698 -69.959183 -0.89999992
-64.695435 -70.644646 -0.90555561
-65.104904 -71.45388 -0.83333343
-65.499504 -72.302307 -0.71923083
-66.151794 -73.34491 -0.62777781
-66.371521 -73.96299 -0.3125
-45.15081 -38.389206 -0.45000005
-44.683937 -38.994843 -0.57499999
-54.368507 -54.951355 -0.42647055
-54.430264 -55.483669 -0.33461535
-55.129009 -55.986237 -0.55000001
-58.594036 -63.107834 -0.11000001
-59.074959 -63.326305 -0.33901095
-59.556599 -64.232819 -0.1388889
-60.17276 -65.104088 -0.077272728
-60.678192 -66.011986 -0.078571424
-61.16571 -66.893723 -0.082258053
-61.708054 -67.697266 -0.081578933
-62.259731 -68.497009 -0.090000011
-62.762054 -69.607056 -0.72499996
-63.126717 -70.354462 -0.88157886
-63.637085 -71.177826 -0.88793123
-64.112335 -72.133682 -0.81969714
-64.523956 -72.858765 -0.73571426
-65.186523 -73.966354 -0.58333337
-65.457886 -74.481018 -0.31744191
-43.927116 -39.202171 -0.59545457
-44.370007 -39.176094 -0.67500001
-53.384033 -55.537766 -0.32391307
-53.926022 -56.022598 -0.31
-54.349586 -56.436234 -0.44999999
-57.969025 -63.457668 -0.11666666
-58.167549 -63.759003 -0.35845062
-58.747963 -64.80645 -0.15800001
-59.183197 -65.665443 -0.073809519
-59.795219 -66.606804 -0.057692301
-60.182831 -67.350235 -0.07631579
-60.792351 -68.150993 -0.050000004
-61.256439 -68.99926 -0.34999999
-61.681427 -70.153534 -0.94999993
-62.248096 -70.900848 -0.93000019
-62.867302 -71.712425 -0.88461566
-63.306591 -72.583549 -0.79583347
-63.827721 -73.397293 -0.63888896
-64.267815 -74.426224 -0.53333342
-64.602814 -74.973595 -0.30000001
-43.050735 -39.703087 -0.62037039
-52.540108 -56.085907 -0.39324328
-52.804794 -57.010574 -0.075000003
-52.834042 -57.311234 -0.15000001
-57.34547 -63.803036 -0.11666666
-57.311291 -64.363358 -0.25405398
-57.849503 -65.264938 -0.1541667
-58.449173 -66.084297 -0.10263156
-59.05172 -66.913902 -0.066666678
-59.347977 -67.648254 -0.072727263
-59.752995 -68.64521 -0.075000003
-60.598751 -69.860107 -0.94999999
-60.817211 -70.638489 -0.94444448
-61.375839 -71.36161 -0.91666681
-61.909317 -72.163406 -0.85555565
-62.189674 -73.124756 -0.81363648
-62.789108 -73.733917 -0.70999998
-63.608402 -74.992973 -0.51999998
-63.770634 -75.464493 -0.25263157
-42.146656 -40.217781 -0.66176468
-51.702621 -56.602783 -0.47073159
-51.80653 -57.184471 -0.32647055
-52.509281 -57.498734 -0.54999995
-56.4888 -64.803833 -0.26505369
-57.074699 -65.782356 -0.1326087
-57.452446 -66.733627 -0.080769233
-57.841221 -67.583923 -0.050000001
-58.579895 -68.196678 -0.091666661
-59.047729 -69.173653 -0.050000001
-59.586304 -70.284271 -0.84999996
-60.008278 -71.058807 -0.93928599
-60.544258 -71.828461 -0.8970589
-61.05407 -72.642296 -0.83709693
-61.606525 -73.475616 -0.78500009
-61.833626 -74.198967 -0.75
-62.620682 -75.462181 -0.53750002
-62.896809 -75.999535 -0.25681821
-63.061317 -76.925392 -0.050000001
-30.528299 -21.576561 -0.25
-30.789345 -22.07402 -0.48866674
-31.304169 -22.900127 -0.43860766
-31.822983 -23.800083 -0.45675677
-32.312363 -24.650417 -0.42297295
-32.793678 -25.473434 -0.44402987
-33.359592 -26.556686 -0.44523811
-33.827686 -27.229277 -0.4359155
-34.337955 -28.082382 -0.47682923
-34.8545 -28.969751 -0.44210535
-35.352085 -29.808929 -0.45133331
-35.689564 -30.419361 -0.45322582
-41.519478 -40.613846 -0.63823533
-50.845665 -57.075283 -0.44343063
-51.299049 -57.704063 -0.41666681
-51.893227 -58.378891 -0.43098593
-52.386154 -59.255093 -0.44607845
-52.885384 -60.115284 -0.44534895
-53.381401 -60.981251 -0.45057797
-53.898811 -61.832844 -0.44285715
-54.393333 -62.701294 -0.45213905
-54.886005 -63.587646 -0.44035533
-55.377644 -64.435051 -0.42914456
-55.758156 -65.192322 -0.31454533
-56.233448 -66.293915 -0.063157871
-56.618019 -67.094696 -0.07941176
-57.087234 -67.711319 -0.066666678
-57.817883 -68.687943 -0.083333343
-57.795292 -69.804367 -0.15000001
-58.852409 -70.746468 -0.94999993
-59.275452 -71.39666 -0.9404763
-59.87294 -72.191193 -0.86176485
-60.317692 -73.102707 -0.81470597
-60.799503 -73.857819 -0.75
-61.166698 -74.843819 -0.64999998
-61.799671 -76.001694 -0.49615386
-61.908718 -76.421333 -0.24230769
-24.059536 -13.269629 -0.51351357
-24.49161 -14.123547 -0.51714289
-25.026257 -15.032835 -0.49861112
-25.514671 -15.869493 -0.481884
-26.00708 -16.71501 -0.48888886
-26.370331 -17.361851 -0.51129031
-29.53907 -22.263165 -0.39285716
-32.006474 -26.23683 -0.42499998
-32.378124 -26.830551 -0.60000002
-34.765862 -31.716232 -0.46176475
-35.056473 -32.336834 -0.47068968
-35.448479 -33.230644 -0.45943394
-36.003502 -34.072807 -0.48387089
-36.59354 -34.881863 -0.52857149
-36.974796 -35.526215 -0.60999995
-40.620411 -41.012161 -0.57222223
-50.002796 -57.559494 -0.43169019
-50.258545 -58.054047 -0.40925926
-51.076328 -58.816795 -0.52499998
-51.623287 -59.780815 -0.51666665
-51.891525 -60.828754 -0.40000001
-53.285484 -62.593155 -0.15000001
-53.229668 -63.331772 -0.27941176
-53.776657 -64.383026 -0.28043479
-54.290821 -65.160538 -0.17608699
-54.811836 -65.953293 -0.084328391
-55.233685 -66.744469 -0.074999981
-55.864895 -67.446541 -0.064285718
-56.201748 -68.484268 -0.050000001
-57.525677 -70.537384 -0.5
-57.692509 -71.326347 -0.94999999
-58.188118 -72.100151 -0.90384609
-58.78524 -72.86187 -0.85714298
-59.116642 -73.718018 -0.77499998
-59.415867 -74.411293 -0.75
-60.909821 -76.446518 -0.49285713
-61.128349 -76.935287 -0.23947367
-23.337925 -13.472456 -0.49270833
-25.928482 -17.954897 -0.56818181
-26.590893 -18.750204 -0.52213115
-27.073673 -19.59296 -0.52419353
-27.575239 -20.461693 -0.51521742
-28.082561 -21.331173 -0.51153851
-28.53056 -22.112726 -0.48636365
-28.586441 -22.813162 -0.48749998
-31.023045 -26.833483 -0.94999999
-31.562916 -27.368568 -0.65000004
-34.956055 -32.64566 -0.75
-35.356056 -33.338482 -0.69999999
-35.856056 -34.204506 -0.55000001
-36.5746 -36.09906 -0.42499998
-37.003906 -36.816776 -0.54137921
-37.513306 -37.833927 -0.50384611
-37.974518 -38.666096 -0.50384617
-38.639622 -39.464668 -0.5583334
-39.07814 -40.421211 -0.47820511
-39.625847 -41.562546 -0.45000005
-49.131599 -58.073914 -0.42218545
-49.494671 -58.693943 -0.46111107
-51.209648 -61.59771 -0.34999999
-51.301395 -62.006615 -0.34999996
-51.929993 -63.091522 -0.3269231
-52.46809 -63.929115 -0.3224138
-52.920639 -64.793037 -0.24545452
-53.465714 -65.586334 -0.21835442
-53.908039 -66.428596 -0.098571472
-54.444508 -67.218033 -0.069565192
-54.774681 -67.872528 -0.050000004
-55.659649 -69.305336 -0.050000001
-55.636448 -69.665146 -0.65000004
-56.919456 -70.887383 -0.94999999
-57.270863 -71.410324 -0.94999999
-57.818558 -72.244675 -0.875
-58.306061 -73.08905 -0.83000004
-58.808739 -73.999718 -0.75
-59.069458 -74.61129 -0.75
-59.828426 -77.125854 -0.46428573
-60.32436 -77.40435 -0.22804876
-22.503479 -13.950433 -0.48069313
-25.048979 -18.366098 -0.63000005
-27.707016 -23.089958 -0.55000001
-27.949423 -23.209814 -0.47499996
