# .PCD v0.7 - Point Cloud Data file format
VERSION 0.7
FIELDS x y z
SIZE 4 4 4
TYPE F F F
COUNT 1 1 1
WIDTH 1588
HEIGHT 1
VIEWPOINT 0 0 0 1 0 0 0
POINTS 1588
DATA ascii
40.921875 -99.231781 3.144737
43.056347 -100.43103 3.505815
48.528286 -103.24656 3.1833334
49.189606 -103.62839 3.159091
50.08712 -104.14656 3.2166667
51.068623 -104.71323 3.1999998
51.81918 -105.14656 3.2
52.771801 -105.69656 3.1000001
53.4935 -106.11324 3.1500001
55.998634 -107.96556 3.2500002
63.28611 -112.16168 3.7899992
65.076538 -113.18406 3.3500006
65.567978 -113.21621 3.3191662
66.636627 -113.64361 3.3566654
67.450645 -114.12279 3.4079704
68.366035 -114.64119 3.4085937
69.223495 -115.13997 3.4493001
70.079987 -115.64381 3.4525471
70.948547 -116.13931 3.4776726
71.809273 -116.64007 3.4801672
72.659798 -117.12613 3.4722223
73.532356 -117.63438 3.4664559
74.304337 -118.26628 3.4762862
78.889534 -121.16684 3.5500002
79.032028 -121.21257 3.3642855
95.361328 -130.72928 3.7184207
95.781944 -131.01509 3.5428581
96.697586 -131.4236 3.6108701
97.706787 -131.91692 3.7050006
98.494614 -132.4762 3.6978266
99.322845 -132.88882 3.7447369
100.19209 -133.39223 3.8449998
100.9771 -133.9073 3.9309518
101.56216 -134.45587 3.927778
-29.733624 -57.600147 3.3499999
-13.414629 -66.719986 3.4689183
-2.3858795 -73.09697 3.5080647
3.1830025 -75.92971 3.4980516
3.8331642 -76.355286 3.4917321
4.6788139 -76.862724 3.5202706
5.5409431 -77.383263 3.4856324
6.422184 -77.89595 3.4597554
7.2621384 -78.382309 3.4735951
8.1410065 -78.891083 3.4700003
8.7143822 -79.14225 3.4420002
13.791603 -82.428154 3.5037818
24.805832 -88.801224 3.5148239
25.042648 -88.724869 3.05
41.26223 -98.295906 3.5742719
41.41396 -98.378052 3.1954548
43.56424 -99.571335 3.4873984
48.657158 -103.09001 3.9166667
49.358215 -103.4948 3.7857144
50.20216 -103.84732 3.7250004
51.152256 -104.50169 3.7875001
52.031036 -104.92247 3.7357144
52.874039 -105.48616 3.8166666
56.514469 -107.11964 3.2444451
63.770626 -111.32037 3.7967734
79.408775 -120.26883 3.4882352
79.541145 -120.33072 3.3555555
84.256943 -123.10559 3.5549693
85.048294 -123.67554 3.5552242
85.922379 -124.18165 3.583334
86.779602 -124.67311 3.5714815
87.65387 -125.1856 3.5788896
88.504944 -125.67166 3.5842345
89.430115 -125.9964 3.6145835
95.847183 -129.88776 3.7562501
96.398155 -129.99722 3.5954549
97.24382 -130.63243 3.6909099
98.155128 -131.09033 3.7180002
98.821411 -131.61249 3.7119048
99.839455 -132.06828 3.8452375
100.70461 -132.52153 3.8999989
101.50217 -133.09306 3.9499996
101.98885 -133.65015 3.95
103.38789 -134.22694 3.6500001
-12.920416 -65.844154 3.4517338
-1.8573151 -72.222862 3.4519613
3.3971958 -75.269188 3.4997442
9.0804329 -78.566841 3.4620004
14.291069 -81.575363 3.5193539
25.313686 -87.936554 3.5147367
25.475979 -87.974319 3.05
41.76651 -97.410477 3.5780823
41.909088 -97.519707 3.1583335
44.148155 -98.700615 3.4952636
45.060749 -98.920273 3.4903667
45.907154 -99.399269 3.4223409
46.707169 -99.78833 3.4375005
47.824577 -100.41541 3.625
48.728271 -100.93716 3.7685182
49.50193 -101.40065 3.6252816
50.320347 -101.90675 3.5086827
51.158478 -102.39207 3.5204549
52.032837 -102.89644 3.5277138
52.890507 -103.39911 3.5108242
53.750282 -103.89552 3.5197921
54.551353 -104.36726 3.4613636
55.285812 -104.78503 3.2642858
56.636383 -105.50291 3.25
57.040997 -106.14534 3.3364868
57.990067 -106.61163 3.926666
58.693817 -106.82934 3.8499997
64.251579 -110.48882 3.8017242
65.052048 -110.37325 3.8066666
65.828293 -110.81536 3.840476
66.693253 -111.34387 3.9200001
67.633232 -111.8808 3.9500003
68.474075 -112.35278 3.9233336
69.479538 -112.9179 3.9099998
70.362892 -113.42791 3.95
79.913811 -119.40659 3.5432584
80.062729 -119.43906 3.347059
84.544579 -122.13425 3.4764161
90.010353 -125.29652 3.5413043
96.341522 -129.03152 3.7785711
96.835442 -129.19147 3.6153853
97.775223 -129.71628 3.6580005
98.511658 -130.23531 3.7437501
99.527458 -130.74786 3.7603447
100.28524 -131.21959 3.8218744
101.12949 -131.87459 3.9099989
101.97032 -132.03937 3.9214289
102.82365 -132.80423 3.925
103.43143 -133.50153 3.8999999
104.60391 -134.12073 3.75
105.25032 -133.8011 3.8499999
106.11275 -135.10733 3.8499999
-27.982803 -55.637634 3.6699998
-27.197735 -56.098766 3.6727276
-26.183535 -56.674744 3.6147056
-25.425285 -57.120495 3.6369569
-24.523567 -57.631615 3.6055558
-23.979891 -57.945503 3.5722225
-22.927664 -58.411877 3.3499999
-19.259556 -60.558525 3.4499998
-17.385101 -61.611877 3.1500001
-15.739654 -62.561878 3.3499999
-14.933256 -63.142933 3.561111
-14.250399 -63.523586 3.5852942
-13.35857 -64.044395 3.5966666
-12.427053 -64.945091 3.4814715
-1.1670628 -71.267036 3.4947369
-0.30572891 -71.55188 3.501493
0.53047562 -72.036209 3.4966671
1.4045391 -72.537598 3.4860003
2.2605591 -73.033722 3.5237703
3.1714497 -73.548874 3.5171759
3.877388 -74.318642 3.5057309
4.7871094 -74.528481 3.3899999
6.4671974 -75.498474 3.6500001
8.2858562 -76.548485 3.5166669
9.4694233 -77.231819 3.6166668
9.9772835 -77.61895 3.4854076
10.948006 -78.038597 3.490556
11.804449 -78.541656 3.4784026
12.67734 -79.048157 3.4720242
13.532564 -79.544846 3.4629633
14.389397 -80.043457 3.4641023
14.770603 -80.743652 3.5208857
25.793093 -87.05513 3.5296795
26.515461 -87.04747 3.4813428
27.396841 -87.52475 3.493979
28.314833 -88.050644 3.5083337
29.132917 -88.527641 3.4936547
30.039774 -89.047104 3.5033703
30.563227 -89.354912 3.4720001
39.618805 -94.56781 3.5388072
40.361141 -94.996788 3.5427544
41.258591 -95.518311 3.5289817
42.109489 -96.313736 3.5675688
42.453037 -96.597153 3.2709308
44.491581 -98.375595 3.5029414
45.368202 -98.640686 3.5573535
46.170547 -98.781494 3.5700014
46.754112 -99.50045 3.2880955
48.165642 -99.957985 3.333333
48.994614 -100.29605 3.576787
49.531029 -101.07835 3.4726083
50.367928 -101.76838 3.4938776
51.23037 -102.26631 3.4999995
52.096474 -102.76636 3.5000002
52.95842 -103.26401 3.5097938
53.901031 -103.72946 3.5453269
54.913811 -103.81691 3.5161023
55.491203 -104.32533 3.2166674
56.643078 -105.3913 3.1833334
57.461189 -105.39468 3.3316324
58.451462 -105.99879 3.8376725
59.205311 -106.36553 3.7578261
59.69651 -106.76929 3.7000005
63.163311 -108.16463 3.7666669
63.750076 -108.54832 3.738889
64.495171 -109.03394 3.8928573
65.027779 -110.23222 3.8045454
66.107513 -110.8556 3.8785717
66.980492 -111.1864 3.9500003
67.771523 -111.81631 3.925
68.482895 -112.22703 3.9214289
69.15715 -112.6163 3.95
70.441757 -113.35797 3.9166667
71.365524 -113.8913 3.95
72.058342 -114.29131 3.95
75.202576 -115.23419 3.7111108
75.607018 -115.40482 3.7700002
80.403961 -118.63622 3.78
80.874832 -118.58974 3.4831491
81.97847 -118.99485 3.5026789
82.842491 -119.50558 3.5008769
83.704636 -119.99825 3.5096333
84.576859 -120.5041 3.5075216
85.047104 -121.19717 3.494355
90.585175 -124.3951 3.5520988
91.511688 -124.50653 3.5510526
92.347618 -125.04037 3.5420802
93.167603 -125.66229 3.5419195
93.993011 -126.04582 3.5890474
94.964951 -126.5 3.6328952
95.856949 -127.00763 3.6633334
96.703545 -127.65655 3.7280824
97.334137 -128.24095 3.5928578
98.154732 -128.92917 3.6928573
99.20327 -129.2562 3.7249997
99.862068 -129.9931 3.7648146
100.79366 -130.37027 3.8071425
101.72121 -130.79364 3.8949997
102.67497 -131.17603 3.9500003
103.40535 -131.69669 3.8499999
103.81827 -132.28149 3.55
105.36319 -132.96561 3.6900003
-28.358913 -54.885738 3.4904764
-28.036762 -55.253403 3.4807694
-26.639608 -55.896709 3.5500002
-26.358479 -56.15065 3.4839287
-25.187134 -56.775391 3.675
-24.55637 -57.192371 3.5006337
-23.491129 -57.707829 3.6699996
-22.722116 -58.21468 3.5274513
-21.826523 -58.613728 3.5954547
-20.94339 -59.225006 3.4842589
-20.206924 -59.636261 3.5052636
-19.156406 -60.240852 3.4830511
-18.412548 -60.691467 3.5212116
-17.392622 -61.297806 3.4976633
-16.659702 -61.796906 3.529268
-15.620257 -62.312244 3.4821434
-14.940178 -62.864643 3.4968748
-13.844805 -63.399002 3.5106747
-13.245008 -63.874916 3.4686439
-12.091534 -64.398697 3.509259
-0.98345757 -70.965912 3.6937499
-0.16076088 -71.389565 3.6555557
0.69780731 -71.878853 3.6875
1.4632854 -72.281296 3.6815791
2.4269733 -72.796349 3.6800001
3.2348137 -73.238312 3.6500001
4.1505661 -73.622116 3.5277779
5.4083557 -73.732452 3.1833334
6.1877785 -74.182457 3.2333333
7.1404037 -74.732452 3.2099998
8.0064278 -75.232452 3.1700001
8.8106556 -75.683945 3.2277777
9.6726131 -76.168755 3.2055557
10.64049 -76.730133 3.2399998
11.552563 -77.265373 3.2625
12.292356 -77.909012 3.425
13.112663 -78.131058 3.3357146
14.152636 -78.742477 3.238889
15.020008 -79.209579 3.2250001
15.826948 -79.709137 3.238889
26.10968 -86.44548 3.4934785
26.473518 -86.756378 3.3781691
27.725828 -87.434105 3.3765056
28.164454 -87.693878 3.4193063
29.418251 -88.439407 3.3616672
29.908684 -88.678482 3.4393444
31.076521 -89.081161 3.5128403
32.011009 -89.553024 3.5005193
32.884583 -89.944923 3.4889429
33.825485 -90.420883 3.4715858
34.691277 -90.921227 3.4842594
35.556854 -91.43399 3.4553094
36.376717 -91.998375 3.4883187
37.208378 -92.558594 3.4868054
38.068169 -93.054962 3.4881942
38.938503 -93.555046 3.4867699
39.588921 -94.136154 3.42713
40.651253 -94.798866 3.4205873
41.477097 -95.209221 3.3423059
42.398293 -95.761589 3.4184208
42.747971 -96.058365 3.3649998
46.218292 -97.693275 3.2642863
46.603359 -98.031448 3.5904779
47.437599 -98.185684 3.625
48.703148 -99.027016 3.2750006
49.460243 -99.530365 3.3539217
49.808662 -99.828865 3.05
54.670101 -103.0975 3.8055556
55.386986 -103.30401 3.6055558
56.230553 -103.52438 3.448319
57.25808 -103.92836 3.3411114
58.094963 -104.34852 3.2219994
58.917458 -105.11603 3.3339691
59.449173 -105.73747 3.5338717
63.280979 -107.93701 3.8749993
64.248558 -108.12315 3.4830101
64.854118 -108.36462 3.6206594
65.680374 -108.58826 3.925
67.756409 -109.91661 3.7170587
68.373077 -110.2489 3.6972725
74.193977 -113.79227 3.95
75.536194 -114.92038 3.7
75.785614 -114.89265 3.5000005
77.251854 -115.09586 3.95
90.446396 -123.17561 3.05
90.755814 -123.55632 3.05
91.84668 -124.0954 3.0857151
92.662445 -124.60393 3.1526322
93.461044 -125.02075 3.20625
94.338181 -125.58786 3.2931821
95.167999 -125.99545 3.3624992
96.15152 -126.53087 3.4478726
96.993759 -127.13992 3.5095243
97.816551 -127.50455 3.5861118
98.745445 -127.99891 3.7224143
99.631912 -128.5163 3.7554059
100.47271 -129.0146 3.7858973
101.31345 -129.53699 3.8597553
102.07422 -130.10869 3.9338698
102.64745 -130.58939 3.9300001
104.03951 -130.64832 3.95
105.1977 -131.69226 3.95
105.71164 -132.3354 3.6833332
107.25294 -132.53246 3.55
46.059677 -95.997284 3.5375001
46.515202 -96.521912 3.5700011
47.41156 -96.915482 3.5010197
47.990505 -97.387817 3.6191354
49.155708 -98.150925 3.5922225
49.90197 -98.620148 3.717926
50.946167 -98.927811 3.3136361
51.25803 -99.318512 3.3166671
55.449303 -101.4825 3.8911765
55.902428 -102.0027 3.9047608
56.634735 -102.85731 3.7564509
57.483894 -102.94762 3.3424051
58.68512 -103.69194 3.6729178
59.475708 -103.94473 3.6778345
60.062485 -104.38454 3.8526311
64.774155 -107.59675 3.0944445
65.43412 -107.66678 3.4067342
66.250244 -108.28558 3.5052238
67.114075 -108.38687 3.5396917
67.728027 -109.36302 3.6528566
74.445923 -112.51147 3.7925928
75.143929 -112.87627 3.7147067
75.923546 -113.55365 3.4499998
76.796196 -114.07927 3.5989053
77.443222 -114.43356 3.4833336
91.439514 -122.80212 3.05
92.022018 -123.22751 3.0642858
92.963478 -123.80018 3.1382353
94.145401 -124.10948 3.261111
94.869926 -124.64455 3.3311319
95.799911 -125.13142 3.4287226
96.591263 -125.65525 3.4718754
97.374557 -126.18124 3.5750003
98.306351 -126.70489 3.658824
99.208824 -127.17436 3.7469699
100.16576 -127.63559 3.8055556
100.96729 -128.15288 3.833333
101.81134 -128.61641 3.8882344
102.62158 -129.20421 3.9208324
103.27678 -129.77495 3.9055557
104.65845 -130.22623 3.55
104.90488 -130.59944 3.8499999
106.58693 -131.68605 3.95
46.144238 -95.55043 3.2071431
46.999382 -95.789696 3.325485
47.67049 -96.327042 3.5024765
48.658459 -96.659828 3.4442174
49.481003 -97.199814 3.4609244
50.326614 -97.881302 3.4593847
51.132965 -98.314041 3.3764322
51.668228 -98.658035 3.4999998
55.552483 -101.00887 3.5214286
56.611267 -101.34009 3.7275519
57.413849 -101.52754 3.5534966
58.149323 -102.19614 3.2677338
59.109993 -102.74803 3.6382852
59.451912 -103.38034 3.5418921
60.645668 -103.98939 3.9115381
66.006454 -106.67937 3.8691177
67.210922 -107.30339 3.2113333
67.62635 -107.75053 3.5726805
68.604866 -108.04604 3.5011966
69.447273 -108.28047 3.8833332
74.070953 -111.5768 3.8785717
74.480637 -111.95242 3.7116666
75.48806 -112.49185 3.4877055
76.342987 -112.94327 3.4158533
76.889717 -113.311 3.5586209
77.864563 -114.05035 3.7303927
86.154869 -118.04208 3.05
86.798347 -118.44658 3.0642858
87.686172 -118.90308 3.0899999
88.628319 -119.44125 3.1750002
89.627594 -119.96046 3.1999998
90.454445 -120.55331 3.2625
91.148941 -120.92541 3.3749998
92.133537 -121.54005 3.4799995
92.913185 -121.96965 3.5277777
93.784958 -122.53969 3.6000004
94.710136 -123.29826 3.4730761
95.379112 -123.74298 3.3777769
96.267113 -124.29175 3.4687498
97.0457 -124.7643 3.5452385
98.009735 -125.22494 3.6327596
98.878052 -125.76309 3.6625001
99.716103 -126.27755 3.792424
100.59337 -126.77489 3.847436
101.41975 -127.35014 3.82619
102.47048 -127.64815 3.9145153
103.17123 -128.09743 3.8833332
104.25867 -128.55205 3.9500003
104.72544 -129.11021 3.9000001
106.02448 -129.86021 3.95
107.76635 -131.44322 3.95
47.538021 -95.36174 3.8833332
48.180828 -95.726318 3.7211857
49.290863 -95.961525 3.5564709
49.942886 -96.441978 3.5410218
50.814224 -97.082657 3.5477264
51.358955 -97.501266 3.6651521
57.004005 -100.82449 3.5604167
57.769157 -101.0016 3.4725089
58.500717 -101.52051 3.6858981
59.435024 -102.18263 3.728642
67.361229 -106.72694 3.4071431
68.278946 -107.07646 3.8195126
68.92968 -107.36993 3.4095123
69.390121 -108.11276 3.9333334
76.425476 -112.19388 3.8833332
86.518745 -117.56822 3.0499997
87.262367 -117.97713 3.0699997
88.147507 -118.38925 3.1239133
88.919777 -118.75311 3.1500001
89.912987 -119.36618 3.2205889
90.790909 -119.74025 3.1736851
91.635735 -120.21019 3.2034883
92.485558 -120.73484 3.2570169
93.388321 -121.24985 3.3467743
94.213181 -121.75661 3.464035
95.049171 -122.37735 3.5390241
95.912842 -122.83334 3.4018512
96.776909 -123.43203 3.4863632
97.665527 -123.91975 3.5662789
98.415146 -124.41837 3.63919
99.338448 -124.8407 3.7099998
100.2636 -125.37585 3.8062494
101.18603 -125.8407 3.8294113
101.88844 -126.4818 3.8388894
102.80269 -126.89764 3.8880949
103.57683 -127.38858 3.9111109
104.18219 -128.0845 3.9333334
105.37544 -127.98438 3.45
105.90488 -128.8674 3.95
48.973984 -95.07457 3.95
49.499329 -95.34407 3.6284492
50.3536 -95.543655 3.8242877
50.792641 -96.124573 3.8166666
57.857903 -99.472397 3.86111
58.274445 -100.06026 3.5520117
58.824043 -100.49061 3.8589745
68.815758 -106.54755 3.8399999
69.281227 -106.77938 3.3720341
90.843216 -118.55496 3.05
91.324425 -119.12147 3.05
92.070641 -119.63667 3.0653851
92.949577 -120.13994 3.0888901
93.768654 -120.57214 3.1868429
94.813301 -120.98383 3.2578948
95.417229 -121.5788 3.3280482
96.454803 -122.09743 3.4362059
97.233604 -122.60077 3.4985719
98.122612 -123.04073 3.5715694
99.042931 -123.55258 3.6371801
99.83065 -124.09686 3.7042863
100.75682 -124.528 3.78
101.57197 -125.03174 3.8244679
102.39302 -125.61006 3.8649995
103.10002 -126.03558 3.9199998
104.34739 -126.265 3.8999999
104.83621 -126.51836 3.95
105.97186 -127.75137 3.8833332
58.401783 -99.478485 3.3
90.919998 -118.02194 3.05
91.812836 -118.07554 3.05
92.662384 -118.65072 3.0600007
93.439331 -119.17059 3.1219299
94.219093 -119.70776 3.2083335
95.139526 -120.16001 3.2523258
95.98053 -120.64259 3.3357136
96.884781 -121.11064 3.4324994
97.744774 -121.66147 3.5081403
98.633232 -122.15579 3.5989368
99.526474 -122.66865 3.6662793
100.38802 -123.22725 3.7652171
101.25198 -123.68093 3.7651527
102.10706 -124.13219 3.8122649
102.97527 -124.66615 3.895283
103.7386 -125.22406 3.9313941
104.25488 -125.75384 3.9500003
108.93333 -128.42194 3.75
93.158783 -117.91924 3.0541666
93.983734 -118.41064 3.0928586
94.756569 -118.77686 3.1306455
95.617371 -119.36848 3.2103174
96.574341 -119.93151 3.2906253
97.349007 -120.42661 3.3779995
98.245026 -120.76167 3.4449148
99.042313 -121.3992 3.5287886
99.926399 -121.88906 3.6055553
100.77956 -122.44803 3.6683328
101.59225 -122.8739 3.7447369
102.61407 -123.38788 3.8293097
103.413 -123.87303 3.9086199
104.24969 -124.27972 3.9409094
109.03693 -127.44252 3.95
93.036026 -116.35687 3.05
93.725685 -116.9695 3.0500004
94.474075 -117.46619 3.0854177
95.261177 -117.92606 3.1427529
96.134979 -118.3935 3.2214284
96.974289 -118.95326 3.2970595
97.970116 -119.48952 3.3713112
98.697258 -119.96292 3.4499993
99.656387 -120.47714 3.5209682
100.48765 -120.90798 3.5811117
101.28702 -121.43347 3.6983874
102.2056 -121.96847 3.7906244
103.05935 -122.46045 3.8758054
103.95953 -122.93685 3.9266658
104.40845 -123.69256 3.9166667
107.06564 -124.45688 3.95
93.65728 -115.56086 3.05
94.15181 -116.10619 3.0545468
94.980133 -116.62291 3.1062503
95.761505 -117.04804 3.1738799
96.662079 -117.5854 3.2409091
97.449692 -118.05147 3.3214293
98.397888 -118.56107 3.3750005
99.269852 -119.0434 3.4790325
100.12799 -119.57522 3.5500002
101.05186 -120.03389 3.6656857
101.90949 -120.55621 3.7421565
102.701 -121.03934 3.8216996
103.5602 -121.58623 3.8988886
104.30147 -122.15167 3.9142849
105.03664 -122.73119 3.95
106.89602 -123.55067 3.8499999
93.865814 -114.84823 3.0499997
94.6073 -115.25818 3.0500009
95.524033 -115.71924 3.1198113
96.197121 -116.1764 3.1833329
97.261116 -116.70863 3.2706354
98.035408 -117.18081 3.3453853
98.842255 -117.68013 3.4185712
99.760818 -118.1942 3.5075345
100.60139 -118.77329 3.596
101.41778 -119.27928 3.6699998
102.33697 -119.76379 3.7416666
103.31641 -120.16698 3.828378
104.07222 -120.71809 3.9058816
104.79369 -121.25566 3.9409087
105.70058 -121.82124 3.95
108.23885 -122.82483 3.6500001
109.58789 -123.48824 3.8499999
94.368332 -113.81594 3.05
95.1772 -114.36998 3.0673928
95.945 -114.83315 3.1314821
96.721153 -115.29268 3.1919744
97.630135 -115.8842 3.2910266
98.573624 -116.37158 3.3696971
99.394638 -116.84572 3.4440472
100.08364 -117.39998 3.4954548
101.14627 -117.83127 3.606523
102.0105 -118.32074 3.6905408
102.81626 -118.88878 3.7653849
103.71538 -119.35649 3.8403215
104.58118 -119.7951 3.9274986
105.32722 -120.31078 3.935715
106.12944 -121.14509 3.8166666
107.00679 -120.9588 3.6500001
108.64866 -122.71503 3.95
94.293213 -112.57939 3.05
94.717232 -112.93245 3.0499995
95.60482 -113.48099 3.0916674
96.486343 -114.01029 3.1588223
97.233162 -114.44312 3.2228808
98.134155 -114.97428 3.3059537
99.102829 -115.51868 3.4023268
99.833466 -115.95126 3.4517853
100.74792 -116.50617 3.5533342
101.65915 -116.96408 3.6404769
102.54484 -117.42044 3.7136366
103.34053 -118.00676 3.7882981
104.2297 -118.50386 3.8824995
104.98905 -118.95059 3.9378779
105.76073 -119.45036 3.9166667
111.93333 -123.22578 3.8499999
94.725906 -111.78997 3.05
95.296989 -112.06866 3.0546525
96.020378 -112.63424 3.0928581
96.898979 -113.12994 3.1572452
97.798653 -113.64859 3.2654929
98.61084 -114.14209 3.3198643
99.568428 -114.66705 3.4104943
100.2771 -115.17865 3.409091
101.29583 -115.68622 3.5464292
102.09521 -116.23021 3.6500008
102.88832 -116.72921 3.6870375
103.67193 -117.2757 3.8092587
104.8 -117.58115 3.923912
105.50126 -117.83792 3.9500008
106.58456 -118.29015 3.95
107.67377 -118.80355 3.95
94.138855 -110.38516 3.0499997
94.822662 -110.66745 3.0807705
95.751205 -111.29347 3.1221306
96.534279 -111.72914 3.1990201
97.450409 -112.26806 3.267858
98.323807 -112.77177 3.3513162
99.14296 -113.24038 3.4378054
100.10237 -113.79292 3.5152187
100.72827 -114.20016 3.563889
101.69067 -114.90508 3.6730771
102.32782 -115.46303 3.75
103.25215 -115.96205 3.8499999
104.56393 -116.17668 3.9300008
105.21593 -116.77606 3.9461532
105.98468 -117.21251 3.9500005
106.78247 -117.48067 3.9500003
107.78719 -118.40714 3.95
108.5465 -119.19195 3.7
89.509598 -106.06479 3.05
90.247078 -106.56931 3.0681815
91.16272 -107.11693 3.1153853
92.036461 -107.60941 3.1712124
92.833969 -108.09399 3.2241936
93.77533 -108.70494 3.2500002
94.597702 -109.16696 3.2799995
95.417511 -109.82373 3.2499998
96.216591 -110.33787 3.2804346
97.063698 -110.77386 3.3840902
98.005692 -111.34004 3.4375007
98.762688 -111.82487 3.5052631
99.639145 -112.29385 3.5892866
100.51151 -112.8735 3.605556
101.27065 -113.30952 3.6371789
102.3073 -113.66525 3.7750003
103.19438 -114.31211 3.6625001
103.71391 -114.86224 3.7833335
105.02284 -115.24672 3.8629024
105.57481 -116.07906 3.9500005
106.48683 -116.55942 3.9166667
106.93814 -116.87772 3.95
112.99051 -119.7947 3.75
16.170597 -63.077106 3.498168
16.962961 -63.656555 3.4916222
17.810232 -64.147774 3.4897056
18.685478 -64.650467 3.4772308
19.549107 -65.145462 3.4963295
20.423771 -65.642555 3.513948
21.2771 -66.133476 3.5334747
22.149069 -66.627396 3.5333328
23.161009 -67.049957 3.5278425
23.664915 -67.391167 3.8299999
25.053095 -67.67588 3.5256093
25.908068 -68.13765 3.5264709
26.770844 -68.633507 3.5147057
27.692684 -69.201546 3.5059998
28.478556 -69.673729 3.5
29.303314 -70.113968 3.4983606
30.23597 -70.630714 3.4964643
31.099781 -71.130577 3.5044556
31.730721 -71.550087 3.5023265
78.911453 -98.94136 3.6700001
90.044479 -105.53838 3.0566664
90.696983 -106.02727 3.0880964
91.53038 -106.38959 3.4370055
92.396034 -106.98512 3.4780309
93.239944 -107.46536 3.5101523
94.109268 -108.0042 3.540992
94.963867 -108.51158 3.5989809
95.831047 -109.02368 3.6362062
96.693451 -109.51283 3.686363
97.520485 -110.07213 3.7175
98.389969 -110.59245 3.6926475
99.291214 -111.10021 3.7300003
100.09738 -111.63676 3.7763166
100.89664 -112.14192 3.8194439
101.79381 -112.68798 3.7375002
102.75774 -113.25173 3.6000001
103.40854 -113.43117 3.73
104.43945 -114.14844 3.5357144
105.27163 -114.60558 3.7258618
105.79269 -115.06169 3.95
16.573734 -62.112419 3.5049555
23.800556 -66.309402 3.4770131
23.83367 -66.818871 3.95
25.230621 -67.461807 3.4031253
25.964256 -68.045334 3.4531248
26.829594 -68.547348 3.4768043
27.454876 -68.909546 3.4360468
28.787336 -69.678871 3.6899998
29.419548 -70.043861 3.5
30.285561 -70.543854 3.5
31.151566 -71.043839 3.5000002
32.061287 -71.055756 3.4925771
61.009651 -87.693817 3.5120814
61.602711 -88.283195 3.5203826
62.478294 -88.787727 3.5080862
63.342392 -89.282425 3.5027208
64.211182 -89.777817 3.4996428
65.016747 -90.047554 3.4930956
66.251198 -90.329742 3.5610468
67.067101 -90.833099 3.5307181
67.919853 -91.326424 3.5426271
68.804581 -91.838013 3.5424447
69.64785 -92.318512 3.5395732
79.324173 -98.159973 3.4777772
79.932564 -98.578339 3.4670541
80.795715 -99.073311 3.4757144
81.69014 -99.585617 3.4614282
82.411438 -100.02451 3.4860544
83.412338 -100.53694 3.5122638
84.267326 -101.02914 3.4903665
85.066101 -101.61115 3.502564
85.962273 -102.1046 3.4662392
86.825462 -102.61298 3.4923429
87.745773 -103.10978 3.5202537
89.604019 -104.368 3.05
90.266151 -104.80062 3.0499997
91.237549 -105.20236 3.076087
91.742554 -105.5458 3.5438654
105.77629 -113.57585 3.757143
114.44674 -118.67247 3.8499999
17.051794 -61.236229 3.4593742
24.288057 -65.463852 3.4740012
25.721107 -66.349739 3.245455
32.523758 -70.163269 3.510674
61.421234 -86.84407 3.5081999
65.629608 -89.358704 3.4991715
66.101974 -89.607941 3.4938593
68.847374 -91.65284 3.25
70.315308 -91.987778 3.4622216
79.719124 -97.407043 3.4911118
88.416176 -102.45762 3.5305829
90.948898 -104.10524 3.05
91.570381 -104.40457 3.1045454
92.210426 -104.67502 3.5410006
106.30016 -112.82717 3.7944446
17.565077 -60.362846 3.5067801
24.78557 -64.614838 3.4994116
26.283838 -65.322411 3.2868423
33.02317 -69.297455 3.492353
34.356842 -69.892204 3.05
35.520653 -70.252068 3.5418921
35.705273 -70.383476 3.4524391
37.283031 -71.257217 3.5690479
37.476143 -71.407623 3.4845457
38.785347 -72.330521 3.5308697
39.402225 -72.761719 3.5252292
40.258823 -73.26123 3.5286667
41.124138 -73.772186 3.5397129
41.933151 -74.35466 3.4846017
42.786476 -74.893173 3.4438469
43.653557 -75.390884 3.4625466
44.534538 -75.87735 3.4722221
45.407234 -76.332451 3.5250754
46.307468 -76.790344 3.4982638
47.177658 -77.258949 3.4978826
48.139858 -77.758652 3.4168222
48.925686 -78.268326 3.3356287
49.856926 -78.777664 3.4220521
50.639915 -79.279755 3.3680482
51.575897 -79.791 3.4354472
52.079529 -79.996521 3.477957
61.926411 -85.985062 3.5115139
66.153961 -88.473251 3.5672412
66.576996 -88.785332 3.4240742
70.819351 -91.119911 3.4616029
80.21386 -96.545174 3.4868824
88.921768 -101.5927 3.5145161
92.191727 -103.55261 3.1833334
92.71286 -103.78835 3.6730769
106.91179 -111.65672 3.833333
18.066566 -59.512398 3.5087161
25.289661 -63.693748 3.4778686
26.75395 -64.360802 3.4722226
33.510338 -68.451981 3.4971111
35.730736 -69.845856 3.5916662
36.161118 -70.31028 3.477155
37.022926 -70.824982 3.4893935
37.890556 -71.341492 3.5011311
38.650158 -71.784294 3.5040536
47.642998 -77.009377 3.6647058
48.285931 -77.383255 3.6788139
49.147858 -77.872658 3.705905
50.000431 -78.371521 3.7387857
50.899067 -78.866547 3.7640362
52.078449 -79.266632 3.6664186
52.443443 -79.362045 3.4822917
62.428123 -85.128708 3.5236673
66.608879 -87.585182 3.6120689
67.215393 -87.679535 3.625
71.321617 -90.255646 3.456322
80.708801 -95.681595 3.5058711
89.42749 -100.72452 3.5000005
93.238785 -102.89047 3.7409086
107.29266 -111.07796 3.8428574
18.561613 -58.635529 3.4925921
25.792482 -62.826138 3.5197675
34.011726 -67.595963 3.5080247
36.305168 -68.868774 3.5499995
36.42009 -69.018539 3.55
52.791492 -78.395905 3.594928
52.946732 -78.492584 3.4765959
62.939617 -84.250412 3.525156
67.091728 -86.739883 3.5423081
67.552887 -87.094963 3.3299999
71.82048 -89.392876 3.4596591
81.200829 -94.817696 3.5034189
89.920181 -99.860733 3.5443659
93.753998 -102.00143 3.7441177
107.86574 -110.04884 3.8833334
19.065695 -57.774536 3.4866967
26.284342 -61.946617 3.5327587
34.222221 -66.35038 3.4624996
34.287163 -67.036705 3.5261908
36.80555 -67.998566 3.5809526
36.948204 -68.103844 3.6444445
53.28743 -77.537384 3.6154144
53.452972 -77.619766 3.4784207
63.436722 -83.396622 3.5223808
67.57814 -85.877861 3.4766665
68.152893 -86.055733 3.4699998
72.326393 -88.51947 3.466759
81.706055 -93.937531 3.5359902
90.409256 -99.027451 3.4952834
94.53923 -101.20329 3.4250002
108.36472 -109.21735 3.8763156
19.587616 -56.893658 3.488775
26.762156 -61.07251 3.4907405
28.396107 -61.716499 3.25
33.945366 -64.804893 3.3000002
34.005173 -65.301308 3.7
36.263542 -66.4897 3.05
37.120262 -67.455841 3.5333333
37.365982 -67.380234 3.45
53.788837 -76.670456 3.6086466
53.952606 -76.754776 3.4821053
63.944 -82.526184 3.5157235
68.100174 -84.834503 3.5625002
68.696228 -85.114655 3.5300002
72.824936 -87.660408 3.4833333
82.214226 -93.074158 3.5454075
90.927559 -98.139526 3.5030611
91.58329 -98.31311 3.05
92.649544 -99.159653 3.1166668
93.038208 -99.153107 3.1500001
96.13269 -100.59329 3.3499999
108.91327 -108.41672 3.8999996
20.076645 -56.079002 3.4668534
27.302437 -60.210793 3.442857
28.819313 -61.383484 3.3499999
29.525528 -61.56028 3.3499999
34.16428 -64.143524 3.5655556
36.513542 -66.056686 3.05
37.871075 -66.205376 3.5210528
37.903336 -66.52092 3.6571431
54.292412 -75.799828 3.6193554
54.452438 -75.889046 3.4873056
64.44342 -81.667274 3.5178571
68.650414 -83.951111 3.5
69.218323 -84.278969 3.5357141
73.325928 -86.793343 3.4862061
82.711166 -92.215523 3.5479486
91.45108 -97.231857 3.5202703
92.113876 -97.634094 3.0500007
92.965904 -97.997238 3.1040552
93.876976 -98.384956 3.1884623
94.677444 -98.713867 3.25
95.535866 -99.527023 3.3
96.323486 -100.15176 3.3611114
97.316582 -100.27608 3.5166669
109.39165 -107.49059 3.9312503
20.549541 -55.224533 3.5271733
21.539677 -55.52552 3.6833334
22.504507 -56.121052 3.5500002
24.14995 -57.071049 3.5999999
25.044847 -57.587715 3.4166667
26.228415 -58.271049 3.05
26.401621 -58.371048 3.3499999
27.733932 -59.263435 3.3633335
28.999697 -59.871048 3.05
30.23534 -60.930859 3.1500001
31.174566 -61.704063 3.6500001
31.477674 -61.879063 3.1500001
32.820015 -62.654064 3.75
33.166428 -62.854065 3.25
34.474564 -63.588322 3.4681821
36.96714 -64.471054 3.05
38.317299 -65.387039 3.6000004
38.42598 -65.544258 3.5999999
54.792458 -74.932358 3.621901
54.954414 -75.027435 3.473469
64.950615 -80.800354 3.5061052
69.122314 -83.130341 3.529798
69.730797 -83.457016 3.4914474
73.821587 -85.942818 3.5021205
83.214188 -91.359444 3.5369792
84.088036 -91.381866 3.4016662
84.916512 -91.873383 3.4459181
85.797356 -92.37188 3.4636364
86.314926 -92.689087 3.4863636
87.559845 -93.487083 3.4532259
88.350647 -93.91217 3.51
89.002251 -94.290298 3.3966665
90.5009 -95.147842 3.55
91.218712 -95.504547 3.5999999
91.939651 -96.282578 3.4333334
92.498123 -96.955269 3.05
93.348053 -97.448013 3.0973685
94.065346 -98.014076 3.1766672
94.944405 -98.495926 3.25
95.556854 -98.990669 3.3499999
96.682693 -99.640671 3.45
97.996758 -99.801003 3.7136366
109.85419 -106.78886 3.9404759
110.15608 -107.30406 3.95
20.712648 -54.624641 3.7
38.808578 -64.581581 3.5624998
55.289726 -74.067093 3.6412282
55.460613 -74.154305 3.4740193
65.363899 -80.286163 3.5063374
66.009468 -80.660904 3.5027583
66.875137 -81.160309 3.5079861
67.744003 -81.661552 3.5071428
68.614609 -82.163406 3.507143
69.278442 -82.554741 3.508553
70.33622 -83.149582 3.5249031
71.217415 -83.659515 3.5299211
72.072037 -84.151413 3.514504
72.955025 -84.653702 3.5235541
73.824883 -85.157768 3.5213704
74.233025 -85.524643 3.1500001
83.577606 -90.863037 3.5245452
84.149925 -91.177994 3.7550004
85.034729 -91.690956 3.7827864
86.007362 -91.764694 3.6188312
86.619308 -92.611725 3.7388885
87.763046 -93.204239 3.8357146
88.576035 -92.881821 3.75
89.183891 -94.057556 3.4785717
90.394684 -93.931824 3.7
91.433914 -94.531815 3.8499999
92.219353 -95.72142 3.3625
93.025978 -95.774323 3.0600007
93.924774 -96.053902 3.1772728
94.916306 -96.600121 3.25
95.653915 -97.622574 3.25
98.445412 -99.063782 3.6547623
110.39284 -105.86541 3.9500008
39.36438 -63.718903 3.05
39.729252 -63.486931 3.25
55.785126 -73.212837 3.6500003
55.965355 -73.299202 3.438669
86.400978 -90.889877 3.4856689
92.712875 -94.496582 3.5
93.511421 -95.11351 3.0649998
94.396461 -95.535843 3.1588242
95.304337 -95.937134 3.2409091
96.20578 -96.247635 3.3214278
97.04538 -96.583916 3.3500001
98.11808 -97.279526 3.4250002
98.828156 -98.024666 3.5833333
110.90767 -104.95227 3.9375002
39.742504 -62.963966 3.6214287
39.795982 -63.171341 3.7899997
56.28511 -72.352638 3.6372559
56.463577 -72.439247 3.4535558
86.904701 -90.014175 3.5015719
93.153236 -93.653854 3.5300004
93.993202 -94.065689 3.1000001
94.999542 -95.089325 3.1500003
95.609993 -95.418678 3.23
96.580208 -95.947594 3.3147056
97.303207 -96.2192 3.6266658
98.161224 -96.853149 3.4966671
98.959686 -97.346848 3.5333333
111.18313 -104.37518 3.95
40.248318 -62.054562 3.55
40.562584 -62.043549 3.1500001
56.787125 -71.481087 3.6445661
56.969223 -71.576889 3.4401288
87.441483 -89.122528 3.5023253
93.66082 -92.783813 3.495455
94.51442 -92.846245 3.2
97.755989 -94.981705 3.807143
40.602776 -61.37394 3.6500001
40.894279 -61.369038 3.55
57.290771 -70.598328 3.632179
57.47364 -70.707001 3.4423397
88.036873 -88.385658 3.5456994
94.233139 -92.083412 3.3099999
95.030411 -92.422478 3.1500003
95.906601 -92.697403 3.25
96.75045 -93.180473 3.307143
98.045265 -94.480637 3.7
41.468849 -60.007202 3.6666667
41.63818 -60.047226 3.4500003
57.794044 -69.733597 3.6738107
57.977886 -69.844421 3.4516733
88.545647 -87.500191 3.5613644
94.769218 -90.914902 3.53
95.451683 -91.718315 3.1409092
96.359627 -92.070847 3.2382355
97.283447 -92.56443 3.3214278
98.16127 -92.879715 3.3888886
98.949181 -93.154999 3.5
41.761932 -59.416229 3.575
58.285088 -68.885017 3.6928575
58.479103 -68.981064 3.463253
89.046364 -86.654716 3.5557148
95.202393 -90.154633 3.6499999
96.916794 -91.635185 3.25
97.755157 -91.849785 3.3
98.60862 -92.384872 3.4033334
99.005615 -92.737244 3.47
42.33358 -58.476105 3.625
58.78339 -68.031143 3.7046869
58.980495 -68.121422 3.4782944
89.426102 -85.731796 3.5037143
95.699036 -89.344406 3.3499999
42.854267 -57.452026 3.6277781
43.12598 -57.403618 3.55
57.725204 -65.717018 3.95
58.309879 -66.245705 3.5086207
59.139217 -66.891853 3.5873144
59.481995 -67.260002 3.4996061
89.930328 -84.816895 3.4910598
96.139214 -88.541985 3.45
100.24527 -90.670128 3.95
111.67294 -97.210159 3.9500003
51.225876 -61.040871 3.8500001
51.778667 -61.316719 3.5
56.493156 -63.85099 3.55
57.073792 -64.627106 3.7409093
57.730942 -65.034866 3.4549642
58.454407 -65.793015 3.4804881
59.340679 -66.304352 3.5263629
59.817287 -66.664085 3.5084274
90.429794 -83.984444 3.4691257
96.761536 -87.504097 3.2833335
97.524368 -87.782852 3.3100002
100.85441 -89.665039 3.625
101.98024 -90.315041 3.55
102.6273 -90.544289 3.8
104.35429 -91.753059 3.5166664
105.5834 -92.424194 3.95
106.0914 -92.544289 3.5999999
108.7877 -94.2742 3.6500001
111.54559 -96.097404 3.95
112.28416 -96.668159 3.95
114.51685 -97.35099 3.75
42.276524 -54.574913 3.5249999
42.849003 -54.958363 3.6333332
43.594364 -55.392353 3.53
44.17152 -55.65937 3.6833334
46.647263 -57.704582 3.1500001
49.34354 -59.434486 3.0999999
51.270893 -60.446205 3.2499998
51.992107 -60.737938 3.4863639
53.007053 -61.222446 3.7833335
54.116653 -61.538658 3.4785717
54.953087 -62.027573 3.7318187
55.866718 -62.469326 3.4875
56.751835 -62.981194 3.5521739
57.512886 -63.389519 3.5119057
58.237255 -64.099251 3.4942307
59.265587 -64.352104 3.505414
59.984417 -64.769226 3.4822323
90.904816 -83.415848 3.5324321
91.817184 -83.878197 3.5987175
92.670769 -84.375244 3.5999997
93.560043 -84.880844 3.5289476
94.444046 -85.38475 3.6100004
95.359047 -85.933311 3.6045456
96.321213 -86.309616 3.5714288
97.189262 -86.496628 3.3500001
98.073616 -87.231514 3.2868421
98.848663 -87.689117 3.3999994
100.95376 -88.942978 3.05
101.44524 -89.391693 3.5500002
102.35269 -89.866119 3.688462
103.23103 -90.065315 3.4499998
104.10493 -90.184967 3.45
106.0273 -91.622002 3.6333337
106.48962 -92.254578 3.25
107.29583 -92.258171 3.8499999
109.081 -93.86618 3.3499999
112.93169 -95.396561 3.5500002
115.02666 -97.067978 3.75
124.81275 -102.71798 3.95
35.718235 -49.674202 3.6900003
36.341 -50.022209 3.6166666
37.123516 -50.52018 3.7899997
38.186295 -51.126076 3.8333335
38.773605 -51.542145 3.95
39.62743 -51.996605 3.9166667
40.844334 -52.622208 3.5166669
41.561592 -53.013222 3.6999996
42.408012 -53.597168 3.8375001
44.289379 -55.188553 3.95
44.225983 -55.49836 3.1500001
47.876682 -57.375156 3.8499999
51.937195 -59.142143 3.55
57.216362 -62.99836 3.5700002
60.426918 -64.306953 3.5121548
90.242882 -81.169525 3.5355864
90.883171 -81.587311 3.5269229
91.739891 -82.072731 3.5105705
92.589684 -82.569313 3.530328
93.46962 -83.107819 3.5396225
94.365639 -83.631805 3.5263886
95.172813 -84.098747 3.5357139
96.006912 -84.581528 3.5314817
97.000023 -85.306984 3.5380011
97.251114 -85.718246 3.3637936
99.318344 -86.756691 3.4121625
100.41064 -87.093658 3.3949997
101.27356 -87.595718 3.5366671
101.94652 -88.003494 3.6800001
103.15256 -88.884552 3.375
103.68444 -89.353287 3.4599998
104.85135 -89.692146 3.9000001
105.51738 -90.538559 3.5
106.22097 -90.873718 3.6346159
106.67088 -91.473961 3.6500003
116.9123 -97.001953 3.45
125.28596 -102.29836 3.95
35.900711 -49.084808 3.6000001
52.333923 -58.25499 3.0833335
60.932243 -63.460182 3.5050001
71.723816 -69.497864 3.5843754
72.19455 -69.890121 3.7739673
73.061935 -70.394249 3.798599
73.940475 -70.890602 3.8425937
74.792351 -71.379959 3.8827581
75.675377 -71.876389 3.8999996
76.544403 -72.371231 3.9093738
77.407127 -72.88147 3.9409087
78.175362 -73.314514 3.9500005
78.930862 -73.687714 3.95
90.49498 -80.548035 3.5147882
36.346844 -48.245419 3.5166669
52.873795 -57.719902 3.5
53.803223 -57.910095 3.8499999
61.416885 -62.610672 3.5297616
72.153168 -68.749649 3.525281
72.687927 -69.042419 3.3599012
73.582718 -69.555756 3.3537829
74.442253 -70.053116 3.3780892
75.315186 -70.549316 3.4122336
76.192993 -71.031616 3.4651344
77.056366 -71.512009 3.4800537
77.917 -72.045967 3.4904251
78.784355 -72.551773 3.4952631
79.64064 -73.04303 3.5156088
80.304474 -73.317741 3.5211332
90.997581 -79.670723 3.5197115
107.52 -89.269897 3.55
108.0697 -89.317841 3.6500003
36.864033 -47.466293 3.5333333
53.431839 -56.633347 3.3700001
61.949238 -61.728821 3.520493
72.632965 -67.915161 3.4770534
72.841827 -67.934288 3.2690477
80.7742 -72.598541 3.4903512
91.497391 -78.809372 3.5401475
107.84679 -88.303879 3.75
108.88602 -88.90387 3.6500001
37.418617 -46.499603 3.4605262
53.889874 -55.720009 3.2900002
54.744072 -56.230492 3.5
55.965656 -56.964645 3.6500001
56.553574 -57.246346 3.45
57.264698 -57.714645 3.25
57.914219 -58.089645 3.55
59.343159 -58.914646 3.6500001
59.81081 -59.184647 3.47
60.886711 -59.805824 3.5323529
61.746231 -60.283463 3.5097702
62.33559 -60.930611 3.5367856
73.129639 -67.055153 3.4948275
73.303139 -67.135277 3.2500005
81.265427 -71.740555 3.5044644
91.998215 -77.937363 3.5528853
108.2968 -87.524452 3.95
109.35924 -88.484268 3.75
109.63244 -88.411057 3.75
37.904961 -45.555801 3.413636
54.3866 -55.032993 3.5
54.840065 -55.564224 3.375
56.315655 -56.358429 3.55
58.04771 -57.358429 3.1500001
58.515362 -57.628426 3.4900002
59.577686 -58.24176 3.3833332
60.384491 -58.733231 3.5277779
61.291172 -59.258209 3.3970592
62.257469 -59.624836 3.5084794
62.633839 -59.680908 3.440434
73.629631 -66.187004 3.4778852
73.80072 -66.273438 3.1794121
81.769547 -70.882088 3.4749999
92.495155 -77.069038 3.5557694
110.18243 -87.458427 3.95
37.963097 -44.145988 3.45
38.362434 -44.718342 3.4259996
54.901848 -54.087242 3.53
55.678223 -54.662498 3.75
62.885956 -58.847279 3.5182447
63.074703 -58.938259 3.4686663
74.13092 -65.317032 3.4963412
74.31028 -65.390854 3.2272732
82.270676 -70.015152 3.4708683
93.106491 -76.310951 3.5621555
93.349037 -76.414787 3.4447367
109.63585 -85.555145 3.7249999
110.30791 -85.741081 3.75
38.902069 -43.883942 3.3964281
55.396759 -53.225006 3.5333335
56.344284 -53.642166 3.2833335
63.412987 -57.941296 3.5314286
63.593575 -58.054298 3.4842861
74.625305 -64.460312 3.498991
74.808479 -64.527916 3.2520409
82.77784 -69.141815 3.4681034
93.518707 -75.362236 3.5394232
109.99322 -85.386185 3.75
110.58891 -85.314415 3.7700002
39.466103 -42.964161 3.5214286
55.871613 -52.379082 3.4854836
56.563267 -52.979546 3.3500001
63.901939 -57.097977 3.5057261
64.079926 -57.20422 3.4848993
75.129631 -63.571705 3.5020206
75.308708 -63.661442 3.2921052
83.274643 -68.282509 3.4642854
93.996506 -74.476448 3.5330849
111.25188 -84.756104 3.8249998
111.67471 -84.740417 3.8499999
39.994431 -42.119301 3.5166669
56.361168 -51.51535 3.4990575
57.166618 -51.884521 3.4499998
64.399162 -56.233025 3.5493007
64.580353 -56.356636 3.5036714
75.616493 -62.718536 3.5222833
76.052399 -62.782734 3.404762
77.098236 -63.246181 3.4342101
77.979271 -63.715954 3.4300001
79.159744 -64.351311 3.5500004
79.869888 -64.761314 3.3749998
80.681984 -65.114716 3.5100002
81.695229 -65.699707 3.5999999
82.48465 -66.155479 3.4653847
83.386703 -66.68483 3.6425922
83.784149 -67.374321 3.4521737
94.492485 -73.609329 3.5426707
111.25416 -82.852165 3.8249998
111.52981 -82.924713 3.8499999
21.487633 -30.517117 3.4630432
22.019434 -30.89946 3.4735296
22.871178 -31.384523 3.4442034
23.72238 -31.879261 3.4632359
24.589264 -32.383152 3.4452384
25.33222 -32.791313 3.4320002
26.41247 -33.361061 3.4911764
27.207924 -33.895035 3.4719179
28.073481 -34.396515 3.480303
28.958992 -34.911263 3.5030303
29.794029 -35.393623 3.5341277
30.27799 -35.681973 3.5250001
40.45573 -41.265678 3.5462966
56.865368 -50.7108 3.5170796
57.656258 -51.52623 3.4520409
58.325954 -51.976494 3.5
59.191959 -52.476479 3.5
60.058002 -52.97649 3.5
60.903038 -53.485962 3.5231707
61.787258 -53.980373 3.5138094
62.653263 -54.481403 3.5188677
63.519947 -54.984776 3.5298166
64.423225 -55.520191 3.5372186
64.879578 -55.816231 3.4681821
76.096687 -61.791885 3.5181823
76.409134 -62.118538 3.4935188
77.417198 -62.809475 3.4580002
78.357559 -63.289829 3.5136366
79.158104 -63.744148 3.4749999
79.992851 -64.205475 3.6214287
81.025902 -64.759018 3.53
81.917526 -65.256775 3.4973683
82.831467 -65.778358 3.5799999
83.634972 -66.24527 3.5383115
84.641464 -66.738937 3.539151
84.983025 -66.90509 3.05
94.988609 -72.736458 3.5451615
112.10793 -82.623398 3.8666668
13.159538 -24.047014 3.5088892
14.097768 -24.583704 3.5657897
14.967167 -25.059895 3.5621614
15.819258 -25.587734 3.5453129
16.658228 -26.034811 3.5407696
17.202993 -26.363541 3.5199997
22.090677 -29.277824 3.3099999
25.873676 -32.08548 3.55
26.566896 -32.395897 3.5500002
30.800213 -34.352463 3.55
31.539665 -34.771694 3.5966666
32.233067 -35.163792 3.5999997
33.125561 -35.685532 3.6040983
34.001823 -36.198402 3.5782604
34.804184 -36.65971 3.6134617
35.346848 -36.977463 3.5599999
40.975559 -40.328239 3.55
57.404652 -49.878712 3.5425928
57.864288 -50.151123 3.0749998
76.597923 -60.980576 3.5186279
76.797699 -61.082325 3.6000009
85.262451 -65.96946 3.5742853
95.416992 -71.845192 3.5121627
112.57189 -82.091232 3.8928576
13.303623 -23.257477 3.4861441
17.234001 -25.249836 3.7166667
17.86869 -26.170532 3.5966666
18.694233 -26.631763 3.5261905
19.538977 -27.154358 3.5406251
20.430927 -27.628365 3.476316
21.251614 -28.116959 3.4822578
22.054922 -28.579758 3.4211111
26.623676 -30.78644 3.45
31.483227 -34.169449 3.45
36.348923 -36.652161 3.6086204
36.868416 -37.249725 3.569231
37.708549 -37.754215 3.6316321
38.537228 -38.225967 3.5895355
39.38361 -38.727707 3.6026311
40.223152 -39.137341 3.5558822
41.438599 -39.686249 3.4900002
57.903259 -49.021702 3.5553479
58.376797 -49.245583 3.0880952
77.104843 -60.104954 3.5184469
77.291885 -60.226395 3.6335616
85.75676 -65.113342 3.5785718
95.893532 -70.957817 3.5320113
113.28603 -81.282852 3.95
13.799938 -22.397839 3.5074716
17.513245 -24.516167 3.6000001
18.219082 -25.010286 3.1500001
22.828358 -27.960125 3.4499998
27.202244 -30.10434 3.6900003
27.812632 -30.260445 3.5
32.133224 -33.043617 3.45
36.316944 -34.997208 3.75
36.797562 -35.698086 3.7833335
41.097107 -38.103447 3.4785717
42.047211 -38.522087 3.4875
58.413151 -48.1441 3.5417945
58.876068 -48.393242 3.0847828
77.596359 -59.235466 3.5106962
77.800705 -59.345085 3.6113331
86.260117 -64.244308 3.5685718
96.392723 -70.090088 3.5462961
101.31884 -72.410606 3.75
101.82523 -72.702957 3.5500002
102.67852 -73.195602 3.5100007
103.52616 -73.68499 3.5297613
104.3653 -74.169464 3.5601263
105.28255 -74.699043 3.6315386
106.12508 -75.189323 3.6116669
106.64826 -75.487549 3.6576924
113.77263 -80.64003 3.95
14.306459 -21.55241 3.5106382
18.042038 -23.730274 3.6299999
18.75182 -24.220894 3.3000002
23.505154 -26.387884 3.75
27.49564 -29.396158 3.55
28.114866 -29.703632 3.6666667
37.229115 -34.72839 3.4611111
41.607754 -37.257652 3.4085362
42.61969 -37.794819 3.5214286
47.889057 -40.860588 3.6390409
48.223213 -41.416859 3.4306448
49.086369 -41.975014 3.5092235
49.97401 -42.47583 3.4731486
50.815834 -42.969242 3.5267677
51.687721 -43.474255 3.5821428
52.547768 -43.966068 3.5993826
53.415882 -44.129654 3.6297302
58.903435 -47.292858 3.5331633
59.380486 -47.538876 3.0907412
78.103836 -58.360329 3.5157008
78.29895 -58.48209 3.5824997
86.77005 -63.373692 3.5550358
96.89959 -69.214012 3.5494564
101.59898 -71.8778 3.6171637
103.18314 -72.836121 3.0499997
103.78399 -73.357544 3.0750005
104.66019 -73.762383 3.119566
105.46476 -74.192688 3.2092595
106.38403 -74.762451 3.2999997
107.00808 -75.036995 3.5565424
14.803168 -20.660183 3.495055
18.650627 -22.921169 3.6500001
19.476713 -23.298676 3.5166667
23.69355 -25.861568 3.05
28.112165 -28.297188 3.5722225
28.676563 -28.630741 3.5966671
37.166946 -33.524967 3.7749999
37.531395 -33.573723 3.3700001
42.099834 -36.335724 3.4779565
43.199665 -36.875992 3.2500002
48.382225 -40.032898 3.6166673
48.473782 -40.140949 3.1261907
53.988201 -43.263969 3.5286505
59.419319 -46.411087 3.5327027
59.864094 -46.704674 3.2115393
78.578667 -57.511734 3.5065427
78.801262 -57.612041 3.552381
87.269104 -62.510048 3.5558829
97.43132 -68.410202 3.5435958
102.06226 -71.066399 3.6365671
103.006 -71.4217 3.05
103.52177 -71.955032 3.0539999
104.24574 -72.214439 3.0766675
105.22776 -72.935371 3.1690481
106.0558 -73.329056 3.2230771
106.91349 -73.778717 3.3041666
107.49728 -74.193924 3.5974145
15.303704 -19.793221 3.5031257
19.235601 -21.98296 3.6200001
20.096756 -22.091398 3.1833334
24.21855 -24.952242 3.55
28.619213 -27.39674 3.5833333
29.170282 -27.787354 3.4911761
33.610023 -30.085735 3.05
37.791946 -32.442436 3.8499999
38.199234 -32.896976 3.5
42.505669 -35.503601 3.5133724
43.506195 -36.293743 3.5833335
44.095425 -36.654922 3.4681158
44.955879 -37.155495 3.4637923
45.829369 -37.670155 3.4527588
46.672131 -38.15266 3.4343524
47.546413 -38.649933 3.4354162
48.437698 -39.187183 3.450675
49.096355 -39.472157 3.1500001
50.230953 -39.964096 3.083333
51.064362 -40.393944 3.0849998
51.922768 -41.026398 3.1055565
52.829956 -41.538673 3.1785724
53.709274 -42.097794 3.1531255
54.553871 -42.679882 3.4126983
55.353302 -43.115654 3.4544439
56.237541 -43.611629 3.4865673
57.079689 -44.103619 3.4842868
57.955486 -44.602634 3.5040746
58.819092 -45.103939 3.5027995
59.769154 -45.64286 3.5533535
60.403149 -45.775795 3.2928572
79.085876 -56.630447 3.5121491
79.301102 -56.746292 3.5363631
87.770348 -61.648262 3.5417244
97.962158 -67.73391 3.5363245
98.719604 -68.015732 3.4588704
99.594765 -68.528458 3.4816668
100.45157 -69.020035 3.491071
101.31817 -69.520218 3.4892523
102.20072 -70.084862 3.5271189
103.31099 -70.404587 3.0611107
104.08029 -71.046692 3.0833335
104.86495 -71.501915 3.1216667
105.71371 -71.912773 3.1833336
106.62356 -72.482605 3.2533338
107.41678 -73.017853 3.3294866
108.13461 -73.491791 3.5556917
109.15271 -73.962051 3.6100001
109.94273 -74.470947 3.6789479
110.86849 -75.116562 3.640697
111.77173 -75.415421 3.696774
112.58795 -75.873108 3.7125003
113.50275 -76.405167 3.6709292
114.28355 -76.905113 3.6299999
115.41676 -77.535973 3.5756407
15.797706 -18.93759 3.4889469
19.806175 -21.210087 3.5500002
20.38162 -21.613377 3.2884614
24.78689 -23.967863 3.4966664
29.096676 -26.558876 3.5081394
29.687416 -26.856155 3.5381353
33.80349 -29.350651 3.7833335
34.035019 -29.349611 3.5625
38.175278 -31.778484 3.7499998
38.718632 -31.960434 3.4500003
43.009743 -34.650642 3.4633653
43.762962 -35.179554 3.318867
44.63855 -35.687107 3.3708327
45.504242 -36.184326 3.380327
46.371979 -36.682175 3.3906493
47.242916 -37.182777 3.4454193
48.107109 -37.677502 3.486567
48.969593 -38.165501 3.5075004
49.85006 -38.674065 3.4738464
50.696239 -39.174301 3.4808273
51.56316 -39.673023 3.4855931
52.443336 -40.15657 3.5242572
53.301109 -40.660954 3.5361388
54.182465 -41.163914 3.548059
55.035553 -41.676659 3.5829678
55.923485 -42.174896 3.6116283
56.746616 -42.66423 3.5977283
57.647652 -43.161346 3.6212494
58.516319 -43.671143 3.6175678
59.384441 -44.184479 3.5900004
60.292252 -44.744423 3.5752625
60.741356 -45.166592 3.2815793
79.595474 -55.728333 3.4792793
79.904678 -55.998463 3.5599995
81.214073 -56.299774 3.7320511
82.098488 -56.81039 3.7924242
82.934578 -57.29311 3.8059998
83.83976 -57.815716 3.8195648
84.634865 -58.274769 3.8666666
85.524963 -58.788666 3.927778
87.247375 -59.783104 3.95
88.298904 -60.783855 3.5350654
88.653023 -60.54847 3.1300004
103.18226 -68.983116 3.05
103.68037 -69.790314 3.0999997
104.37708 -70.052345 3.0704093
105.22198 -70.574127 3.1180005
106.21079 -71.092484 3.2075005
107.16545 -71.619987 3.2619998
107.86754 -72.106056 3.3595238
108.79087 -72.632797 3.4628198
109.64002 -73.100807 3.5328577
110.48113 -73.605392 3.5928581
111.34253 -74.04911 3.6642861
112.2963 -74.591522 3.7194443
113.06009 -74.988503 3.7547615
113.89004 -75.668701 3.6019998
114.8312 -76.164436 3.7763162
115.8485 -76.73819 3.5223403
116.17083 -76.886215 3.6500001
16.290529 -18.084 3.4730768
20.338852 -20.338745 3.4166672
20.972897 -20.604639 3.1269233
25.384665 -23.228279 3.4802816
26.077976 -23.851101 3.4854164
26.950106 -24.349724 3.4703825
27.80534 -24.846888 3.4754906
28.661358 -25.34473 3.4794519
29.368439 -25.817905 3.457216
30.497786 -25.997162 3.512686
31.52137 -26.398741 3.4992313
32.391171 -26.898846 3.4938776
33.258648 -27.399982 3.4910257
34.109734 -27.901325 3.4867566
34.616482 -28.342516 3.4532261
38.683617 -30.898026 3.6833334
39.076363 -31.217794 3.4138894
43.507927 -33.777847 3.4742572
80.01593 -54.985062 3.4753079
