# .PCD v0.7 - Point Cloud Data file format
VERSION 0.7
FIELDS x y z
SIZE 4 4 4
TYPE F F F
COUNT 1 1 1
WIDTH 1437
HEIGHT 1
VIEWPOINT 0 0 0 1 0 0 0
POINTS 1437
DATA ascii
1.15 -8.9624996 -0.050000001
1.3633335 -8.9666672 -0.060000002
1.5724999 -8.9712505 -0.03875
1.6099999 -8.9949999 -0.064999998
1.7825464 -8.9753771 -0.045754723
1.8549999 -8.9915695 -0.058428578
3.5450001 -8.9527788 -0.094999991
3.6849999 -8.9524994 -0.085000001
3.7278218 -8.9503651 -0.047909088
5.3950005 -8.958334 -0.0050000004
5.4050965 -8.9499474 -0.050346535
6.7725 -8.9049997 -0.047499996
6.8850007 -8.9821434 -0.010714287
6.9583335 -8.9616671 -0.0050000004
8.3850002 -8.9250002 -0.025
8.4499998 -8.9250002 -0.015000001
8.5050001 -8.9650002 -0.035
8.9730005 -8.9510002 -0.046999998
1.3575 -8.8399992 -0.039166667
1.4324999 -8.8349991 -0.040000003
1.5485715 -8.8378572 -0.046428572
1.6296154 -8.8349991 -0.047307692
1.7489998 -8.8382502 -0.044500008
1.8412497 -8.8353138 -0.0546875
1.9521055 -8.8376369 -0.050263159
2.0509181 -8.8401079 -0.049387753
2.1313801 -8.8341417 -0.050258618
3.5279415 -8.843235 -0.094999984
3.6924999 -8.835 -0.087499999
3.7285969 -8.85044 -0.047912624
5.4052887 -8.8492737 -0.051310677
6.5661635 -8.8514891 -0.020851063
6.6628542 -8.8666096 -0.053571433
6.7509069 -8.8890057 -0.048727274
6.8486776 -8.8860254 -0.048163261
6.9461641 -8.885355 -0.052441854
7.0399985 -8.885004 -0.057037048
7.1475015 -8.8849983 -0.056000002
7.2561121 -8.8849993 -0.07388889
7.3430009 -8.8849993 -0.066
7.4224997 -8.8850002 -0.044999998
7.5050001 -8.8899994 -0.039999999
8.9733334 -8.8433332 -0.07
2.1330531 -8.7507038 -0.051912732
3.5236669 -8.7450008 -0.094999991
3.6735713 -8.7378569 -0.085000001
3.7286777 -8.7493877 -0.047346931
5.395 -8.7799997 -0.0049999999
5.4052887 -8.7501488 -0.051019419
6.5624962 -8.7500019 -0.020555552
6.6397338 -8.7455273 -0.072368428
8.9775 -8.7574997 -0.060000002
2.1329193 -8.6489611 -0.051577162
3.5489128 -8.6471739 -0.091956541
3.6624999 -8.6449995 -0.087499999
3.7277198 -8.6496601 -0.047038831
5.4058218 -8.6491261 -0.051513761
6.562243 -8.6509428 -0.018768115
6.6283355 -8.6496668 -0.071266666
8.4549999 -8.6449995 -0.015000001
8.9775 -8.665 -0.032499999
2.1350627 -8.5532093 -0.046975318
3.5690002 -8.5489988 -0.090500012
3.6575 -8.5375004 -0.082500003
3.7277856 -8.5510807 -0.045515452
5.4058218 -8.5498638 -0.051880736
6.5628104 -8.5499983 -0.018125001
6.6830759 -8.547308 -0.077692315
8.4450006 -8.5749998 -0.025
8.9750004 -8.5550003 -0.045000002
2.1337774 -8.4501038 -0.048197281
3.595 -8.4949999 -0.089999996
3.6412499 -8.4529161 -0.090833351
3.7259281 -8.4472218 -0.04944443
5.4060674 -8.4504509 -0.052500002
6.5623045 -8.4511557 -0.017500002
6.684999 -8.4514275 -0.079999998
8.4950008 -8.415 -0.015000001
8.5350008 -8.4549999 -0.015000001
8.9825001 -8.4299994 -0.055
9.0050001 -8.4250002 -0.055
2.1357584 -8.3515854 -0.046772148
3.7358055 -8.3512783 -0.054708034
5.4066629 -8.3495779 -0.054500006
6.5631609 -8.3511209 -0.018061226
6.6577125 -8.3258476 -0.075677969
8.9850006 -8.3500004 -0.052499998
2.1346602 -8.249795 -0.045068499
3.7391262 -8.2498865 -0.053854972
5.295001 -8.2135715 -0.024285715
5.3427229 -8.2219896 -0.05296747
5.4066648 -8.2592716 -0.052812506
6.3934999 -8.2260008 -0.082000002
6.428865 -8.2313662 -0.03681818
6.5522528 -8.2360754 -0.034901962
6.6050019 -8.2552948 -0.072352946
8.9750004 -8.2300005 -0.076666668
2.1368816 -8.1512375 -0.044805191
3.7391903 -8.1499605 -0.05290699
5.2949972 -8.1514149 -0.027075475
5.3060732 -8.1473646 -0.059731178
6.3726645 -8.1411133 -0.044333331
6.4461546 -8.1480074 -0.043141589
6.5382032 -8.1645317 -0.040283013
6.6638894 -8.1272221 -0.068333335
8.9787502 -8.1399994 -0.058750004
2.1360292 -8.0502205 -0.046397068
3.7400422 -8.0505886 -0.051141731
5.2949977 -8.0504169 -0.024166668
5.306325 -8.0494881 -0.058979589
6.365005 -8.0416098 -0.042627115
6.4457154 -8.0415878 -0.045000006
6.5441885 -8.0262146 -0.062027037
6.640821 -8.0341043 -0.077388056
8.9827776 -8.0516672 -0.050555557
1.3604547 -7.9086366 -0.03772727
1.4278572 -7.9121428 -0.05642857
1.553889 -7.9105568 -0.059444439
1.6342857 -7.9150009 -0.050714292
1.7575712 -7.9118576 -0.046714284
1.8437504 -7.9139977 -0.046500005
1.9489505 -7.9111686 -0.04709876
2.0515847 -7.9102373 -0.051219512
2.1359079 -7.9419069 -0.047181815
3.7495637 -7.9666328 -0.048913039
3.842587 -7.9491372 -0.048793115
3.9464288 -7.9492865 -0.04976191
4.0397062 -7.9479418 -0.047352947
4.1485715 -7.9499993 -0.043571435
4.2530003 -7.9480004 -0.046999998
4.3394446 -7.9483328 -0.048333339
4.4335718 -7.9478569 -0.046428572
4.5395451 -7.9477272 -0.049545456
4.6405554 -7.9461112 -0.043888889
4.7518749 -7.9449997 -0.046250001
4.8553848 -7.9461527 -0.050384618
4.950789 -7.9460502 -0.047368415
5.0553565 -7.9455347 -0.049464285
5.1546707 -7.9469619 -0.047499996
5.2581906 -7.9523787 -0.043124996
5.3066378 -7.9735427 -0.05790909
6.2950006 -7.9507155 -0.019285716
6.3506136 -7.9648476 -0.032153837
6.4404287 -7.9775033 -0.04232759
6.5399337 -7.9555335 -0.037333332
6.6701918 -7.9483767 -0.064610392
8.9813633 -7.9395456 -0.047727268
1.335 -7.8949995 -0.078333333
1.5350001 -7.8949995 -0.075000003
1.725 -7.8949995 -0.055
1.9549999 -7.8949995 -0.085000001
2.0699999 -7.8949995 -0.094999999
2.135 -7.8949995 -0.094999999
3.4508338 -7.8058367 -0.021041671
3.5476665 -7.8067794 -0.019000003
3.6460259 -7.8075647 -0.014743594
3.7461426 -7.8104286 -0.011000001
3.8391171 -7.8120599 -0.0085294098
3.9309998 -7.8129997 -0.0070000007
4.0250001 -7.8150001 -0.0049999999
4.295001 -7.834166 -0.023333335
4.3129311 -7.833622 -0.059137933
4.4812503 -7.835 -0.016249998
4.5049992 -7.8268747 -0.0625
6.5741668 -7.8824987 -0.014583334
6.6653948 -7.8800035 -0.040657893
6.7506752 -7.8726587 -0.051756751
6.8527794 -7.8736672 -0.056333341
6.9489393 -7.8756056 -0.05227273
7.042201 -7.875 -0.060199995
7.1480775 -7.8757691 -0.058076926
7.2561121 -7.875 -0.059444439
7.3350005 -7.875 -0.079999998
7.4400001 -7.8775001 -0.039999999
7.5150008 -7.8716669 -0.055000007
8.9783344 -7.8499999 -0.047500003
0.73166668 -7.7849998 -0.035000004
0.94500005 -7.7849998 -0.025
1.1516666 -7.7849998 -0.075000003
1.365 -7.7870002 -0.059000004
1.5743334 -7.7763338 -0.051000006
1.7863888 -7.7766685 -0.047499996
1.8736658 -7.7398872 -0.047444448
2.0650001 -7.7049994 -0.094999999
2.1613638 -7.7049994 -0.091363639
2.2083335 -7.7050004 -0.091666669
3.441956 -7.7427506 -0.048623193
3.5505402 -7.7567549 -0.063108101
3.6521053 -7.7565756 -0.058552634
3.7517076 -7.757781 -0.056265824
3.8448551 -7.7552881 -0.05775363
3.9495835 -7.7554197 -0.056250006
4.0446777 -7.7550025 -0.054354835
4.1450005 -7.7557168 -0.04678572
4.2535 -7.7610006 -0.038500004
4.3049994 -7.7790895 -0.055
4.4949999 -7.7750001 -0.010000001
4.5139465 -7.7713175 -0.063947365
4.6529999 -7.7549996 -0.045000002
4.7576675 -7.7550001 -0.05033334
4.8573995 -7.755002 -0.047799997
4.9584479 -7.7550025 -0.050862066
5.0541224 -7.755002 -0.048157897
5.1535101 -7.7558441 -0.04691489
5.2543931 -7.7578712 -0.046287887
5.334476 -7.7434187 -0.045855261
6.5950003 -7.7083335 -0.0083333338
6.647223 -7.7150002 -0.006111112
6.7050004 -7.7150002 -0.0049999999
6.9281588 -7.7371039 -0.053421058
7.0425005 -7.7650003 -0.063749999
7.125001 -7.7650003 -0.075000003
7.2600007 -7.7650003 -0.075000003
7.3950005 -7.7650003 -0.085000001
7.4683342 -7.7650008 -0.078333333
7.750001 -7.7650003 -0.035
8.125 -7.7650003 -0.060000002
8.9805555 -7.7400002 -0.048888884
1.8860419 -7.6731248 -0.038750004
1.9649999 -7.6697054 -0.046029411
2.0481923 -7.6568413 -0.054361708
2.160316 -7.6522789 -0.047405064
2.2078464 -7.656189 -0.061972469
3.4409447 -7.6481352 -0.04879085
5.346241 -7.6502557 -0.044489048
6.5949998 -7.6499991 -0.0099999988
6.618187 -7.6343603 -0.05159574
6.7518187 -7.6550016 -0.045454547
6.8542871 -7.6550002 -0.043571435
6.9235716 -7.675714 -0.049285717
8.5102406 -7.6311903 -0.048333332
8.9689999 -7.6556673 -0.065666661
2.1949983 -7.5511613 -0.043139528
2.2075016 -7.5494132 -0.073823549
3.4401951 -7.5523024 -0.049144737
5.3473501 -7.5504389 -0.04823529
6.5950003 -7.5525002 -0.0087499991
6.6091514 -7.5489998 -0.056307685
8.5127449 -7.5440307 -0.052096777
8.6450005 -7.5399995 -0.094999999
8.9795446 -7.5450006 -0.059090912
2.1949983 -7.4513407 -0.041219499
2.206877 -7.4479995 -0.070000008
3.4411011 -7.4499269 -0.049411774
5.3470964 -7.4491777 -0.047835823
6.5950003 -7.4526472 -0.0091176461
6.6088438 -7.4510012 -0.054555554
8.5122738 -7.4543939 -0.051969696
8.875001 -7.4250002 -0.094999999
8.9776087 -7.4384794 -0.054130435
2.1920223 -7.3475022 -0.035952374
2.2076528 -7.3515029 -0.068493977
3.4410548 -7.3492975 -0.047816884
5.347744 -7.3487 -0.048287671
6.5950003 -7.3499999 -0.0050000008
6.6096487 -7.3510275 -0.052739728
8.5122499 -7.3442497 -0.048
8.8850002 -7.3099999 -0.094999999
8.9743357 -7.3386674 -0.055000007
2.1901183 -7.253334 -0.033095233
2.2075021 -7.2477274 -0.06613636
3.4457729 -7.2495751 -0.046971813
5.3473473 -7.2484818 -0.053291149
6.5950003 -7.25 -0.0050000008
6.617897 -7.2454338 -0.050409846
8.4930763 -7.2288451 -0.045384608
8.5094767 -7.2494726 -0.051842112
8.8607159 -7.226428 -0.094999991
8.9635105 -7.2405329 -0.06138299
9.0050001 -7.2849998 -0.060000002
2.1949999 -7.1524529 -0.028454546
2.2074749 -7.1495156 -0.06392473
3.4425328 -7.1499267 -0.045352109
5.3474188 -7.1488543 -0.052409627
6.5950003 -7.1499991 -0.0050000008
6.6259704 -7.1452584 -0.050389607
8.4916668 -7.1333327 -0.046666667
8.5081043 -7.1232758 -0.049482763
8.7850008 -7.1683335 -0.094999999
8.8554764 -7.1569047 -0.095000006
8.9665804 -7.1504388 -0.062368412
2.1950009 -7.0522919 -0.025833333
2.2074513 -7.0507135 -0.06061225
3.4436352 -7.0505762 -0.046088435
5.3495483 -7.0498838 -0.051321842
6.5950003 -7.0550013 -0.0050000004
6.6218514 -7.0485086 -0.050847985
8.4950008 -7.0510001 -0.031666674
8.5076923 -7.045577 -0.059807699
8.625001 -7.0250001 -0.094999999
8.7750006 -7.0550003 -0.094999999
8.84375 -7.0549994 -0.094999991
8.9710712 -7.0441093 -0.058750011
2.1883333 -6.9509645 -0.020438593
2.207624 -6.9492722 -0.059466023
3.4437771 -6.9491653 -0.045320511
5.3500266 -6.9493165 -0.051666666
6.5950003 -6.9650002 -0.0049999999
6.6226397 -6.950345 -0.050057478
8.494997 -6.9515524 -0.033275865
8.507493 -6.9452744 -0.057361118
8.75875 -6.9375 -0.094999991
8.8850002 -6.9049997 -0.085000001
8.97258 -6.9434829 -0.052727275
10.282499 -6.9199996 -0.010000001
10.3485 -6.9215002 -0.015999999
10.454092 -6.9168191 -0.011363637
10.562143 -6.9178572 -0.010714287
10.68 -6.915 -0.0099999998
10.765 -6.915 -0.0049999999
10.805 -6.915 -0.015000001
2.1906104 -6.8532915 -0.017926831
2.207963 -6.8489814 -0.056388885
3.4418175 -6.8501 -0.043079462
5.3503447 -6.850029 -0.051972967
6.5950003 -6.8599997 -0.0049999999
6.6235008 -6.8497858 -0.050322585
8.494997 -6.84197 -0.035000004
8.510725 -6.8471322 -0.05893258
8.677001 -6.8630004 -0.094999999
8.749877 -6.8450003 -0.095000036
8.8459377 -6.8565626 -0.091250017
8.9700575 -6.8517747 -0.051989257
10.077858 -6.8411913 -0.0088095227
10.14375 -6.8480005 -0.0092499992
10.244497 -6.8569994 -0.0105
10.334169 -6.8608336 -0.0050000008
10.4425 -6.8400002 -0.0125
10.565001 -6.835 -0.015000001
10.615 -6.8549995 -0.0049999999
10.745 -6.835 -0.0049999999
10.905001 -6.8849998 -0.0049999999
2.1950006 -6.7538896 -0.014259259
2.2077527 -6.7484841 -0.053990819
3.4416625 -6.748034 -0.043511894
5.3510542 -6.7493086 -0.054128192
6.6240983 -6.7488198 -0.049271353
8.494997 -6.7501345 -0.033378378
8.5122557 -6.7511048 -0.059421062
8.679287 -6.7635717 -0.094999999
8.7453575 -6.7582145 -0.094642885
8.8478584 -6.7435713 -0.086428575
8.9717436 -6.7472124 -0.053947352
10.078461 -6.7465377 -0.0088461535
10.141088 -6.7497835 -0.01021739
10.243824 -6.7491174 -0.0085294116
10.344999 -6.7383332 -0.0050000004
10.415 -6.7949996 -0.025
10.585001 -6.7849998 -0.0049999999
10.685001 -6.7549996 -0.0049999999
2.1934619 -6.6442308 -0.011923078
2.2078593 -6.6492014 -0.054747902
3.4406056 -6.6501427 -0.044595364
5.351922 -6.6493444 -0.054392498
6.6247201 -6.6495371 -0.049195137
8.494997 -6.6494455 -0.034777779
8.5132551 -6.6524515 -0.061122447
8.6536674 -6.6463332 -0.092333332
8.7488899 -6.647223 -0.093888879
8.8600006 -6.6507139 -0.088571429
8.9738865 -6.6476707 -0.046982747
10.0795 -6.6475 -0.0089999996
10.145311 -6.6512504 -0.0090624979
10.233001 -6.6570001 -0.0050000008
10.325 -6.6649995 -0.02
2.1825004 -6.5512505 -0.0079166647
2.2079093 -6.5492721 -0.054090906
3.4416645 -6.5504775 -0.04285714
5.3522792 -6.5478644 -0.053681821
6.6253204 -6.550004 -0.047952373
8.494997 -6.5495234 -0.038333334
8.5109434 -6.5498657 -0.065360352
8.6523352 -6.5543337 -0.094999991
8.7495842 -6.5474997 -0.093750015
8.8567142 -6.5444288 -0.089571461
8.970644 -6.548892 -0.050190836
9.0508881 -6.5079966 -0.028444439
9.1486082 -6.5082521 -0.029534873
9.2477942 -6.5075021 -0.025000002
9.3483334 -6.5086365 -0.027121212
9.4452229 -6.5074472 -0.025666669
9.5489273 -6.5057158 -0.023571432
9.6454554 -6.5072737 -0.023636365
9.7510004 -6.5063334 -0.024333335
9.8542585 -6.5116682 -0.038703702
9.9466677 -6.5116677 -0.039722227
10.061897 -6.5370698 -0.019482758
10.140638 -6.5496149 -0.0085897427
10.245 -6.5649996 -0.0050000004
10.335001 -6.5550003 -0.0049999999
10.455 -6.5250001 -0.015000001
0.87500012 -6.4749999 -0.064000003
0.95023805 -6.474524 -0.064523809
1.0550001 -6.4749999 -0.054500002
1.1400001 -6.4749999 -0.054285716
1.2524999 -6.4745002 -0.069499999
1.3520372 -6.4746299 -0.055740733
1.4416667 -6.4711113 -0.05111111
2.1932356 -6.4538231 -0.0079411762
2.2080774 -6.449872 -0.053205125
3.4433284 -6.4503088 -0.043024685
4.0550003 -6.4550004 -0.075000003
4.1469998 -6.4660006 -0.077999994
4.2349997 -6.4650002 -0.07
4.3299999 -6.458333 -0.076666668
4.4526925 -6.4450011 -0.08961539
4.5564289 -6.4464293 -0.087142855
4.6187496 -6.4237494 -0.084999993
5.3532362 -6.4498763 -0.05385245
6.6261153 -6.4490595 -0.046709411
7.1580763 -6.4366593 -0.050512195
7.2493238 -6.4499998 -0.049791664
7.3499222 -6.4500785 -0.049410257
7.4502282 -6.4501276 -0.048908629
7.5501585 -6.4501038 -0.049393948
7.6494393 -6.4501314 -0.048475929
7.7511053 -6.440484 -0.048628319
8.4949989 -6.4494452 -0.037962966
8.5107861 -6.4496727 -0.059672892
8.6588106 -6.4421434 -0.094523825
8.7517633 -6.4452949 -0.090588264
8.8485165 -6.4475937 -0.087777779
8.9647484 -6.4601278 -0.072948717
9.0518818 -6.4739847 -0.060222935
9.1499405 -6.4726839 -0.053597581
9.2488337 -6.4726753 -0.048698641
9.3501015 -6.4698381 -0.044411771
9.447813 -6.4750876 -0.036570251
9.5487814 -6.4660745 -0.032714285
9.6465511 -6.4681063 -0.027586212
9.7475185 -6.4634132 -0.022850465
9.8497753 -6.4656677 -0.016444441
9.9486065 -6.4627924 -0.011744192
10.048538 -6.4585366 -0.0088461582
10.145626 -6.46 -0.0071874978
10.24 -6.4375 -0.0075000003
10.325 -6.4349999 -0.0099999998
1.475 -6.3450003 -0.079999998
2.1935191 -6.3438883 -0.028333336
2.2081423 -6.3491321 -0.054090917
3.4462566 -6.3488336 -0.043143712
3.9950001 -6.3450003 -0.075000003
4.6250005 -6.3399992 -0.079285726
5.3536053 -6.3488817 -0.053799987
6.6267595 -6.3497887 -0.045504205
7.1444182 -6.3488402 -0.05294643
7.7743034 -6.3494234 -0.050846986
8.4949989 -6.3464546 -0.032818172
8.5144739 -6.3499994 -0.061893933
8.6473999 -6.3514004 -0.093400016
8.7643766 -6.3470836 -0.089583352
8.8511124 -6.3508348 -0.084444433
8.9508486 -6.3519812 -0.081981137
9.0517521 -6.3466883 -0.070324697
9.1465387 -6.3497686 -0.065000005
9.2488651 -6.346333 -0.056866657
9.3527546 -6.349081 -0.048673473
9.4416676 -6.3526196 -0.043571442
9.5556431 -6.3508067 -0.037580661
9.6489992 -6.3451815 -0.031909101
9.7456961 -6.3466277 -0.025930235
9.8500891 -6.3455253 -0.016578948
9.9485989 -6.3500004 -0.010000002
10.049829 -6.3491373 -0.0053448267
10.133001 -6.3543334 -0.0056666681
10.209 -6.3570004 -0.0090000005
10.344999 -6.3450003 -0.0099999998
0.315 -6.2050004 -0.035000004
0.59100002 -6.2330008 -0.058999997
0.65500003 -6.2324991 -0.063750006
0.74900001 -6.2323332 -0.065666661
0.82166672 -6.229445 -0.05944445
1.483 -6.2370005 -0.057000004
1.5654762 -6.2311897 -0.059285711
1.6530001 -6.2341418 -0.048428573
1.7478125 -6.2428107 -0.045937501
1.8497059 -6.2335291 -0.036764696
1.9510978 -6.2291465 -0.044512194
2.0484481 -6.2284479 -0.061896544
2.1756938 -6.2445841 -0.044444449
2.2086399 -6.2483325 -0.05439394
3.4528332 -6.2529535 -0.048333362
3.5561116 -6.2138896 -0.064444445
3.645 -6.2130003 -0.063000008
3.7502944 -6.2144132 -0.070294119
3.8443749 -6.2137504 -0.07
3.9544449 -6.2188897 -0.074444443
4.0450001 -6.2049999 -0.06666667
4.1599998 -6.2050004 -0.085000001
4.2505555 -6.2049994 -0.066111118
4.3435717 -6.2049999 -0.065000005
4.4350004 -6.2049994 -0.056000002
4.5562501 -6.2049994 -0.055
4.629107 -6.235714 -0.069642857
4.7411108 -6.207778 -0.056111109
4.8593488 -6.2115231 -0.064130433
4.9531245 -6.2131262 -0.072500005
5.0568757 -6.204999 -0.043124996
5.1525002 -6.2068748 -0.046875
5.2519236 -6.2057691 -0.033461537
5.3536749 -6.248477 -0.05132813
6.6415009 -6.2359843 -0.047485881
6.7499962 -6.2099977 -0.049999993
6.8493929 -6.2099471 -0.050000001
6.9500046 -6.2099977 -0.050000001
7.0503073 -6.2098975 -0.049591839
7.1380091 -6.2408991 -0.051105261
7.7766709 -6.2455111 -0.048702136
7.8495727 -6.2099733 -0.049314715
7.9522333 -6.2112093 -0.048252426
8.0516281 -6.2209349 -0.048137248
8.1490345 -6.2152362 -0.04697185
8.2500286 -6.2104416 -0.045157071
8.3508787 -6.2106018 -0.04296704
8.4591694 -6.2205563 -0.038981494
8.5212879 -6.2462883 -0.068467714
8.650404 -6.2539196 -0.089864895
8.7509022 -6.2495909 -0.087131135
8.8485203 -6.2554226 -0.080070414
8.9445677 -6.2487683 -0.078913048
9.0504093 -6.2525396 -0.069590159
9.1602001 -6.2515335 -0.064199992
9.2476406 -6.2499037 -0.056981146
9.3469677 -6.2500811 -0.049754087
9.4551868 -6.251296 -0.042222232
9.5440884 -6.2429547 -0.036818184
9.6479416 -6.2516665 -0.02696079
9.7464304 -6.2511916 -0.022301584
9.852869 -6.2472949 -0.014016395
9.9482775 -6.249999 -0.0093750041
10.041166 -6.2447882 -0.0067021251
10.152779 -6.2505555 -0.0072222226
10.295 -6.2800002 -0.0049999999
10.455 -6.2350001 -0.0049999999
0.29500002 -6.1550002 -0.039999999
0.33881563 -6.1694736 -0.048421051
0.4505555 -6.1655569 -0.045277778
0.54262501 -6.170001 -0.045374997
0.63673919 -6.1706529 -0.036304347
0.74419993 -6.1614008 -0.037000004
0.86500025 -6.1411757 -0.044705883
0.9438237 -6.1414695 -0.039411761
1.0631819 -6.1193175 -0.045681819
1.1517212 -6.11975 -0.043688517
1.253226 -6.1212859 -0.046774179
1.3536752 -6.1210203 -0.051265053
1.4492486 -6.1275654 -0.049424775
1.5517122 -6.1371956 -0.049109593
1.6496998 -6.1368122 -0.047048185
1.751236 -6.1361804 -0.047235299
1.8435179 -6.1592593 -0.048024684
1.9562496 -6.1605711 -0.05374999
2.0433455 -6.1667943 -0.047275875
2.1467657 -6.1622572 -0.046764705
2.2112384 -6.170918 -0.052419353
3.4612224 -6.1709223 -0.036020406
3.5499344 -6.1839914 -0.048986502
3.6504536 -6.1860561 -0.049685311
3.7487819 -6.1900492 -0.050630253
3.8500848 -6.1922951 -0.051440675
3.9495206 -6.1930933 -0.051956516
4.0499506 -6.1941137 -0.048069309
4.1482301 -6.1940956 -0.046818174
4.2494683 -6.1922369 -0.042872339
4.3510008 -6.1933546 -0.041470591
4.449337 -6.1929531 -0.03909637
4.5501318 -6.194211 -0.037499998
4.6526833 -6.1930609 -0.050092597
4.7501822 -6.1940966 -0.052090902
4.8496728 -6.1943512 -0.05023364
4.9507303 -6.1943254 -0.049660191
5.0502777 -6.1942644 -0.051018517
5.1496229 -6.1944399 -0.05103774
5.251225 -6.1944399 -0.05056604
5.3329401 -6.1945562 -0.052794117
6.6450005 -6.1550007 -0.015000001
6.7950006 -6.145 -0.0049999999
6.8700004 -6.1912489 -0.047083337
6.9050002 -6.1950002 -0.035
7.1329165 -6.1945829 -0.048333336
7.7700014 -6.1950006 -0.048333332
7.8750014 -6.1950006 -0.094999999
7.9744735 -6.1950006 -0.061315782
8.1549997 -6.1949983 -0.057352941
8.2503576 -6.1949987 -0.085357159
8.3473701 -6.1888952 -0.068728819
8.4533882 -6.172739 -0.085806474
8.5526915 -6.1555762 -0.090384632
8.6524582 -6.1443219 -0.088898316
8.7534847 -6.1433344 -0.083939388
8.8504372 -6.1529412 -0.080735281
8.9482479 -6.1461244 -0.071125023
9.0474033 -6.153801 -0.060466666
9.1546469 -6.1498232 -0.060294084
9.2466841 -6.151629 -0.052865177
9.3496876 -6.1498098 -0.045126576
9.4495726 -6.1464295 -0.039000023
9.5480928 -6.1459532 -0.032261923
9.6534548 -6.1496477 -0.024436617
9.7477589 -6.1493092 -0.019827584
9.8606243 -6.1510935 -0.012343755
9.9431705 -6.1433339 -0.0093333377
10.04325 -6.1529989 -0.0054999986
10.135834 -6.1675005 -0.0066666678
10.205 -6.1150002 -0.0049999999
3.4457405 -6.0872207 -0.01351852
3.5436206 -6.0877566 -0.013275864
3.6418424 -6.0865779 -0.019736841
3.7492859 -6.0878577 -0.012142858
3.8500004 -6.0900006 -0.02
3.97 -6.0900002 -0.0175
4.0599999 -6.0875006 -0.030000001
4.1500001 -6.085 -0.0099999998
4.2349997 -6.0950003 -0.0099999998
4.4300003 -6.0950003 -0.0049999999
4.8450003 -6.0749998 -0.0049999999
8.3916683 -6.061667 -0.094999999
8.4485416 -6.0508332 -0.09458337
8.5473518 -6.0491171 -0.091666698
8.6551266 -6.0516667 -0.088205114
8.750844 -6.0461874 -0.084108859
8.8576984 -6.0481453 -0.077471904
8.9493341 -6.0474448 -0.071777783
9.052639 -6.0475826 -0.063202247
9.1400032 -6.0460353 -0.050158728
9.250104 -6.0492721 -0.049166668
9.3485584 -6.046783 -0.042821787
9.4464331 -6.0507126 -0.037619073
9.5526676 -6.0496607 -0.029757295
9.6500511 -6.0447841 -0.023387093
9.7475424 -6.0441532 -0.016525427
9.8496389 -6.0506525 -0.0094927596
9.9429684 -6.0492187 -0.0064062485
10.043286 -6.054142 -0.0067142835
10.146667 -6.0583339 -0.0066666678
10.225 -6.0050001 -0.0049999999
8.3676672 -5.9476666 -0.094999991
8.4580002 -5.9523993 -0.092800036
8.5463428 -5.9500742 -0.090522386
8.6466398 -5.9469175 -0.087054789
8.7515097 -5.9527063 -0.081055
8.8488779 -5.9498978 -0.075918362
8.9506969 -5.9504652 -0.067441873
9.0504522 -5.9506917 -0.062398404
9.1492405 -5.9461007 -0.058559328
9.2521629 -5.9482341 -0.050686281
9.3466005 -5.9493704 -0.042226892
9.4472332 -5.9511156 -0.036359232
9.5515394 -5.9469228 -0.030192321
9.6478052 -5.9473677 -0.021842096
9.7530956 -5.9516664 -0.015357144
9.8453617 -5.9475298 -0.009216872
9.9472237 -5.9550004 -0.0074444427
10.031669 -5.9556665 -0.0056666676
8.2900009 -5.8350005 -0.094999999
8.3550014 -5.8454008 -0.095000014
8.457098 -5.8482256 -0.092903256
8.548707 -5.8499441 -0.088820159
8.6500616 -5.8465281 -0.085352913
8.7498531 -5.8466821 -0.080148488
8.8427191 -5.8479834 -0.07324563
8.9474211 -5.8486834 -0.065526322
9.0507441 -5.849894 -0.057765953
9.1499481 -5.8494668 -0.054805823
9.2522984 -5.8525991 -0.047900002
9.3502445 -5.8518023 -0.039754093
9.4527378 -5.848124 -0.034140628
9.5508356 -5.8479166 -0.028125009
9.6498699 -5.8483906 -0.020739123
9.7541142 -5.8506861 -0.013431373
9.8478069 -5.8519793 -0.0097916741
9.9420595 -5.8470588 -0.0085294088
10.035668 -5.8496671 -0.0089999996
10.148334 -5.8316674 -0.0050000004
10.221666 -5.811667 -0.0083333338
8.1900005 -5.7550001 -0.094999999
8.2535725 -5.7335715 -0.094999999
8.3452854 -5.7447143 -0.095000036
8.4580364 -5.752975 -0.091708831
8.5532827 -5.7507586 -0.085808046
8.6495686 -5.7482395 -0.084142819
8.7508249 -5.7524757 -0.077427171
8.8475056 -5.7515187 -0.070000038
8.9511614 -5.7533941 -0.065446466
9.05161 -5.749238 -0.057372898
9.1538153 -5.7513685 -0.052037042
9.2499456 -5.7490401 -0.046010096
9.3474293 -5.7467113 -0.035900909
9.4529476 -5.74859 -0.02978633
9.5530186 -5.7526045 -0.026074383
9.650465 -5.7510695 -0.020641018
9.7446709 -5.7477865 -0.012377048
9.8444061 -5.7494049 -0.0089285783
9.9398136 -5.7485194 -0.0053703682
10.026251 -5.7512503 -0.0050000004
10.135001 -5.7800002 -0.0049999999
10.255 -5.7150002 -0.0049999999
8.2500019 -5.6495843 -0.095000014
8.3521156 -5.6483898 -0.093813591
8.4581146 -5.650064 -0.090454526
8.5542021 -5.6485 -0.08479996
8.6497517 -5.6491799 -0.081311427
8.7544127 -5.6493535 -0.076294117
8.8503008 -5.6481004 -0.067000017
8.954217 -5.6484318 -0.061470591
9.0541153 -5.6498041 -0.055392165
9.1510191 -5.6533055 -0.051779665
9.2467127 -5.6480632 -0.043828819
9.3506222 -5.648334 -0.037000015
9.4490604 -5.649219 -0.028749999
9.5479984 -5.6467757 -0.02238317
9.6492205 -5.6528902 -0.01738531
9.7496405 -5.6507726 -0.010284555
9.8449993 -5.6496062 -0.008421056
9.9441128 -5.6496668 -0.0069999979
10.037858 -5.6492863 -0.0050000004
10.115 -5.6750002 -0.0049999999
10.265 -5.625 -0.0049999999
8.1950006 -5.5950003 -0.094999999
8.2766666 -5.5683341 -0.081666671
8.3561764 -5.5726476 -0.093235284
8.4535198 -5.5585179 -0.093518555
8.5598106 -5.5565195 -0.089556947
8.6524115 -5.554915 -0.084999941
8.7457304 -5.5573955 -0.083124965
8.8516016 -5.5599546 -0.075642198
8.9495726 -5.5562611 -0.069803178
9.050539 -5.5547705 -0.066153884
9.151062 -5.553452 -0.057709694
9.248312 -5.5510902 -0.0506391
9.3488903 -5.5532312 -0.046504412
9.4549351 -5.553472 -0.035902765
9.5496044 -5.5538683 -0.033066668
9.6523724 -5.5522051 -0.025593217
9.7490931 -5.5516424 -0.017919701
9.847414 -5.5499187 -0.012499999
9.9455929 -5.551548 -0.010595242
10.038931 -5.5549998 -0.0064285705
10.131924 -5.5511541 -0.0050000008
10.240001 -5.5749998 -0.0049999999
8.2825003 -5.4524999 -0.094999999
8.3658695 -5.4502177 -0.091521747
8.4502258 -5.4463634 -0.093636408
8.555872 -5.4507971 -0.089927539
8.6558628 -5.4479804 -0.084903806
8.7449999 -5.4456253 -0.0820833
8.8535328 -5.4480472 -0.074390247
8.9495869 -5.4489985 -0.067583352
9.0491114 -5.4515181 -0.063839294
9.1527138 -5.4495749 -0.055254243
9.2515898 -5.4511185 -0.047235288
9.3477468 -5.4538069 -0.043073379
9.4522572 -5.4524193 -0.035322588
9.5449162 -5.4472303 -0.030846158
9.650979 -5.4541302 -0.021413039
9.7456646 -5.4524074 -0.018407397
9.8435869 -5.4504857 -0.013230087
9.9467344 -5.4491339 -0.010333339
10.039883 -5.4503489 -0.0068604634
10.1475 -5.4400001 -0.0058333338
10.215 -5.4050002 -0.0049999999
8.2610006 -5.335 -0.080999993
8.3656454 -5.3466129 -0.092741959
8.4448185 -5.3508172 -0.089909092
8.5570545 -5.3466434 -0.089794524
8.6538382 -5.3478689 -0.083759621
8.7469234 -5.3467312 -0.081634603
8.8468962 -5.3449998 -0.075000003
8.9475002 -5.3477354 -0.0655469
9.0516434 -5.3483562 -0.062622413
9.1521177 -5.3480134 -0.056164421
9.2449093 -5.3450847 -0.047241367
9.3509092 -5.343523 -0.042130433
9.4516916 -5.3486695 -0.033715606
9.5445013 -5.3496671 -0.028166676
9.6465015 -5.3523993 -0.020199995
9.7400036 -5.3467302 -0.014326921
9.8457556 -5.3530645 -0.011451617
9.9463558 -5.352797 -0.0078813564
10.031668 -5.3486662 -0.0059999991
10.129 -5.3410006 -0.0049999999
10.225 -5.395 -0.0049999999
7.9850006 -5.2249999 -0.094999999
8.1750011 -5.2150002 -0.094999999
8.264473 -5.2455263 -0.093947366
8.3623152 -5.2486582 -0.090121977
8.4468575 -5.2497139 -0.089142874
8.5523767 -5.2502489 -0.086624987
8.6554432 -5.2557974 -0.082787581
8.7401867 -5.2529249 -0.078301892
8.8483305 -5.2516661 -0.071206905
8.9496956 -5.2494249 -0.063230097
9.0510311 -5.249311 -0.057931054
9.1550875 -5.2487078 -0.051724136
9.246666 -5.2555556 -0.042222235
9.3498936 -5.2515631 -0.038125001
9.4532785 -5.2547741 -0.031766921
9.545557 -5.2513885 -0.028472224
9.645422 -5.248333 -0.020916663
9.7466393 -5.2480173 -0.015086204
9.8433647 -5.2467389 -0.012499999
9.9462242 -5.251122 -0.0054081609
10.035002 -5.2526188 -0.0050000004
10.115001 -5.2800002 -0.0049999999
7.9250007 -5.1850004 -0.094999999
8.1722736 -5.1586366 -0.094999991
8.2559681 -5.1456451 -0.0937097
8.3665562 -5.149889 -0.090777822
8.4488325 -5.14815 -0.089383572
8.5534525 -5.1453581 -0.084404737
8.6539373 -5.1509838 -0.081557326
8.744997 -5.1508064 -0.077741921
8.8480864 -5.1550918 -0.069909103
8.9460564 -5.148984 -0.060263198
9.0562191 -5.1492252 -0.055081308
9.1542263 -5.1489239 -0.050846148
9.2446489 -5.15307 -0.045087706
9.3449144 -5.1506143 -0.037982449
9.4530821 -5.1469998 -0.029560011
9.5468388 -5.1481576 -0.023508776
9.6485958 -5.1561246 -0.016123597
9.7491236 -5.1515131 -0.012889909
9.8444576 -5.15413 -0.011521742
9.9453344 -5.1511674 -0.0076666675
10.021001 -5.1460004 -0.0070000007
8.165 -5.0361114 -0.094999991
8.2460537 -5.0497375 -0.093947396
8.3618813 -5.0477862 -0.090573765
8.4480448 -5.0472827 -0.088913001
8.5530872 -5.0496798 -0.084042527
8.6567822 -5.0497971 -0.078008123
8.7454653 -5.0503492 -0.076317832
8.8468227 -5.0480909 -0.068545468
8.947423 -5.0522871 -0.059571452
9.0553389 -5.0492048 -0.052386373
9.1537266 -5.0483904 -0.047118641
9.2440395 -5.0474005 -0.041799996
9.3473873 -5.0496912 -0.035796467
9.4543076 -5.0496149 -0.027615389
9.548625 -5.050797 -0.022898551
9.6478319 -5.0481877 -0.015796458
9.7488203 -5.0493822 -0.011516859
9.8359337 -5.0478001 -0.0086000049
9.9461117 -5.0620375 -0.0057407399
10.028334 -5.0538893 -0.0050000004
8.0950003 -4.9250002 -0.094999999
8.1641998 -4.9485998 -0.095000014
8.2531824 -4.9454551 -0.093409128
8.3597527 -4.9509997 -0.090374991
8.4474735 -4.952312 -0.08811824
8.5522108 -4.9511547 -0.083653815
8.6485729 -4.9526777 -0.075803593
8.7466221 -4.951036 -0.073648654
8.8500834 -4.9491076 -0.067053594
8.950037 -4.9506798 -0.05804003
9.0493917 -4.9534101 -0.052009352
9.1484604 -4.9487085 -0.04588709
9.2451468 -4.9494619 -0.040107906
9.3510389 -4.9450002 -0.03054456
9.4552746 -4.9458113 -0.023018014
9.5513716 -4.9507799 -0.019370358
9.6489515 -4.9573259 -0.012790702
9.7558117 -4.9550004 -0.010050507
9.8384476 -4.9510341 -0.0087931054
9.9290018 -4.9556675 -0.0070000002
7.5925012 -4.8225002 -0.094999999
7.6050005 -4.875 -0.094999999
7.8900008 -4.8475003 -0.094999999
7.9432855 -4.8390002 -0.095000036
8.0512753 -4.8481369 -0.09284316
8.1559763 -4.8484144 -0.090853624
8.252718 -4.8502169 -0.085326061
8.3504 -4.8486524 -0.083888844
8.4501152 -4.8494353 -0.077631555
8.5501909 -4.8488946 -0.073549613
8.6444569 -4.8496094 -0.071328141
8.747941 -4.8506866 -0.072058834
8.8548193 -4.8490548 -0.062927946
8.9467793 -4.8466272 -0.055697698
9.0489445 -4.8489475 -0.050087702
9.1496782 -4.8499184 -0.043467734
9.2529068 -4.8505049 -0.036317818
9.3536863 -4.8485351 -0.031161632
9.4518681 -4.8499155 -0.022796603
9.5525885 -4.8523107 -0.017758612
9.6391888 -4.8518915 -0.014459463
9.7410011 -4.8601999 -0.0089999959
9.8227787 -4.8683338 -0.0050000004
7.5900011 -4.7475004 -0.094999991
7.7850008 -4.7350001 -0.094999999
7.8837509 -4.7275004 -0.094999991
7.954998 -4.750227 -0.095000044
8.0551291 -4.7452536 -0.09120252
8.1574421 -4.7481394 -0.088139489
8.2511787 -4.7496333 -0.084593438
8.3493214 -4.7508788 -0.080540508
8.456852 -4.7510958 -0.075068489
8.5481529 -4.7457881 -0.068464592
8.6471949 -4.7534842 -0.064697027
8.7563105 -4.7484345 -0.064595982
8.8593445 -4.7507572 -0.05893942
8.9428577 -4.7505555 -0.054185193
9.0475874 -4.7496295 -0.047777768
9.1478729 -4.7461371 -0.040833335
9.2495489 -4.7486591 -0.035000004
9.3513279 -4.7485557 -0.0288889
9.4470367 -4.7522225 -0.019814808
9.5482759 -4.7570009 -0.013000001
9.6457596 -4.7512131 -0.0089393985
9.7481575 -4.759737 -0.0076315785
9.8050003 -4.7449999 -0.0049999999
4.5797377 -4.6423693 -0.012368421
4.6743217 -4.6382575 -0.041893937
4.750236 -4.6502342 -0.049554966
4.8497391 -4.6502633 -0.050894745
4.9504638 -4.6501546 -0.050618567
5.0500784 -4.6502333 -0.049512826
5.1495891 -4.6501012 -0.050459184
5.2498989 -4.649951 -0.04964646
5.3560491 -4.6454339 -0.048826087
5.4674954 -4.6524982 -0.044946797
5.549192 -4.6743956 -0.055606056
5.6487746 -4.6730328 -0.054781426
5.7485466 -4.6726732 -0.055581409
5.847331 -4.6740141 -0.05816061
5.9494147 -4.6685171 -0.054385465
6.0499735 -4.6681604 -0.053305082
6.1509004 -4.6730967 -0.054512184
6.2513671 -4.6659074 -0.050656557
6.3497601 -4.6641846 -0.050729729
6.4667192 -4.6541586 -0.048105266
7.5862503 -4.6512499 -0.094999991
7.7550001 -4.6100001 -0.094999999
7.8690734 -4.6464815 -0.095000021
7.9571066 -4.6462283 -0.092368461
8.0492125 -4.6487904 -0.089842051
8.1491928 -4.647151 -0.084032223
8.2575207 -4.6486287 -0.083296232
8.349534 -4.6486692 -0.079244569
8.4506054 -4.6491213 -0.071486518
8.5498199 -4.6475539 -0.063248217
8.6488514 -4.6468344 -0.060779829
8.7558031 -4.6473379 -0.055725832
8.8529568 -4.6497583 -0.061407782
8.9503498 -4.6522532 -0.052323949
9.0495739 -4.6469049 -0.045666657
9.1514921 -4.6489472 -0.0385965
9.2486362 -4.6513624 -0.034338843
9.3537283 -4.6554246 -0.026779663
9.4470911 -4.6490955 -0.019380949
9.5448627 -4.6468916 -0.0087837884
9.6447792 -4.6476674 -0.0085555539
9.7278576 -4.6778574 -0.0064285723
4.5750003 -4.5521436 -0.0050000004
4.6813269 -4.5508127 -0.049358979
5.3949976 -4.5577993 -0.051399998
5.4611673 -4.560205 -0.035136975
6.4855704 -4.5507107 -0.047712542
6.5050001 -4.585 -0.094999999
7.5883346 -4.585 -0.094999999
7.6324997 -4.5487504 -0.094999991
7.781251 -4.5637503 -0.094999991
7.8520594 -4.5482354 -0.094705924
7.9538689 -4.5466976 -0.092169836
8.0542536 -4.5541596 -0.0888317
8.1447735 -4.547874 -0.082586184
8.2565861 -4.5502491 -0.078249991
8.3500767 -4.5500765 -0.075597025
8.4514399 -4.548789 -0.068106093
8.549221 -4.5503521 -0.062535241
8.6461124 -4.5503597 -0.056920029
8.7559795 -4.5500016 -0.051742423
8.8551054 -4.5490627 -0.054895848
8.9507799 -4.5550871 -0.0501724
9.0523911 -4.5500002 -0.043384619
9.1491413 -4.5484133 -0.037439026
9.2503624 -4.5477667 -0.030892864
9.3457766 -4.5482755 -0.024482762
9.445447 -4.5490456 -0.017808987
9.542696 -4.5563846 -0.008384618
9.6455879 -4.5479412 -0.008823528
9.7049999 -4.5550003 -0.064999998
4.5749998 -4.4800005 -0.0049999999
4.6822271 -4.4496298 -0.051203709
5.3949986 -4.4585495 -0.054354835
5.4472728 -4.4595461 -0.037727274
6.4858389 -4.4500036 -0.046554621
6.5050001 -4.4100003 -0.079999998
7.5925012 -4.4400001 -0.092500001
7.6438894 -4.4505558 -0.092777774
7.7562509 -4.4343748 -0.094999984
7.8516665 -4.4550004 -0.093787916
7.9591064 -4.4553576 -0.08874999
8.0525999 -4.4497986 -0.08729995
8.1507473 -4.4529786 -0.081170186
8.2568264 -4.4537511 -0.077307694
8.3530722 -4.4511347 -0.073151276
8.4518147 -4.4497418 -0.06625928
8.5478048 -4.4498792 -0.062134154
8.6531992 -4.4484234 -0.053648669
8.7545233 -4.449697 -0.047147624
8.8511295 -4.4509463 -0.053738743
8.9476223 -4.4512615 -0.047424227
9.0481434 -4.4503222 -0.040080644
9.149538 -4.4487042 -0.034814827
9.2518902 -4.4462214 -0.028777787
9.3503609 -4.4537501 -0.021696426
9.4424372 -4.4571953 -0.016341465
9.5443163 -4.4418187 -0.006363634
9.6559992 -4.4530001 -0.015666667
9.7049999 -4.4483333 -0.061666667
4.6831489 -4.3521152 -0.047268052
4.7049999 -4.3100004 -0.085000001
5.3950009 -4.3567648 -0.044999998
5.4099998 -4.3650002 -0.030000001
6.4860139 -4.3496404 -0.046914883
6.5049996 -4.3487501 -0.086249992
7.5850005 -4.3650002 -0.094999999
7.6350007 -4.3638892 -0.088333324
7.7600007 -4.3537502 -0.094999984
7.8510003 -4.3509998 -0.091000028
7.9444656 -4.3457141 -0.089285716
8.0537901 -4.3500543 -0.084890082
8.1475801 -4.3490858 -0.08037632
8.2474718 -4.3412886 -0.075721651
8.3532991 -4.3485999 -0.070200004
8.447607 -4.349369 -0.063739493
8.5495472 -4.3483043 -0.05648762
8.6540766 -4.3476052 -0.049201682
8.7550611 -4.3483124 -0.044397563
8.8542156 -4.3465791 -0.049473681
8.9530191 -4.3491173 -0.042499989
9.0494251 -4.3508978 -0.037820511
9.1503811 -4.3526936 -0.031666674
9.2490578 -4.3522072 -0.026981985
9.3519659 -4.3505354 -0.019374995
9.4450006 -4.3519773 -0.015465113
9.5458097 -4.347703 -0.0063513503
9.654047 -4.360714 -0.025476193
9.7049999 -4.3505559 -0.062777773
4.5749998 -4.2249999 -0.0049999999
4.6837153 -4.2509995 -0.042571418
4.7050004 -4.250001 -0.086538471
5.395 -4.2675004 -0.057499997
5.4130001 -4.2610002 -0.041000005
6.486351 -4.2513318 -0.047227077
6.5049996 -4.2531819 -0.084090911
6.6601667 -4.2549272 -0.047789115
6.7500215 -4.2598019 -0.048169401
6.8472319 -4.2610044 -0.046450786
6.9560952 -4.2594218 -0.047686562
7.0475492 -4.2509184 -0.050051022
7.151619 -4.257267 -0.04896136
7.2487593 -4.2604246 -0.050634515
7.3479714 -4.2470269 -0.0503125
7.6683335 -4.2550001 -0.092777774
7.757 -4.2505002 -0.094500013
7.855689 -4.2525864 -0.090517268
7.9719152 -4.2485819 -0.060583316
8.0468292 -4.2662477 -0.049072586
8.1492004 -4.2705512 -0.046652541
8.2491627 -4.2716379 -0.041134469
8.348731 -4.2726555 -0.039234251
8.4487629 -4.2712359 -0.034139782
8.5371094 -4.2484403 -0.044266071
8.6486483 -4.2525868 -0.048586193
8.7528114 -4.2513576 -0.041754954
8.8557396 -4.2438531 -0.045491774
8.9465046 -4.2479076 -0.039606042
9.0459499 -4.2509127 -0.033086963
9.1508284 -4.2491016 -0.02858975
9.2468405 -4.2520208 -0.02102836
9.349164 -4.2549992 -0.014603968
9.4454775 -4.2492862 -0.016111117
9.5452938 -4.2497058 -0.0055882339
9.6683331 -4.2583337 -0.020333335
9.7049999 -4.2375002 -0.039999999
11.255 -4.2750001 -0.0099999998
4.6844344 -4.1512275 -0.039150946
4.7050004 -4.1509256 -0.086111128
5.3950009 -4.1480002 -0.068000004
5.4150004 -4.1683335 -0.061666667
6.4862871 -4.1524978 -0.044285715
6.5049996 -4.1610003 -0.087999992
6.6391182 -4.1555886 -0.038529415
7.3617697 -4.1500745 -0.048333332
7.565001 -4.1500001 -0.094999999
7.6550002 -4.1420002 -0.094999991
7.7463646 -4.1500006 -0.093636379
7.8560004 -4.1515002 -0.093500003
7.9801283 -4.1527672 -0.046735525
8.005003 -4.1470003 -0.052777775
8.4950008 -4.159667 -0.0089999996
8.5312843 -4.1501508 -0.039935064
8.6518202 -4.1478186 -0.045636341
8.7577257 -4.153028 -0.042006787
8.8478642 -4.1477938 -0.044117633
8.9512844 -4.1458774 -0.036959454
9.049305 -4.1476746 -0.03119719
9.1499643 -4.1587586 -0.023796991
9.2457523 -4.1542506 -0.016166667
9.3436413 -4.1639829 -0.013813565
9.4474258 -4.1540909 -0.015303033
9.5350018 -4.1492858 -0.0050000004
9.689168 -4.1558337 -0.044166673
9.7049999 -4.168334 -0.048333332
11.094999 -4.1550002 -0.0049999999
11.145 -4.1100001 -0.0099999998
4.6851549 -4.0440784 -0.044384617
4.7049994 -4.0559092 -0.085909091
5.395 -4.0450001 -0.064999998
5.438333 -4.0516672 -0.045000002
6.4861856 -4.051343 -0.045645155
6.5050001 -4.085 -0.075000003
6.6350007 -4.0299997 -0.043999996
7.3659315 -4.0495086 -0.045046955
7.4510355 -4.019412 -0.04623377
7.5495005 -4.0196123 -0.04718934
7.6503358 -4.020895 -0.050224721
7.7487259 -4.0233107 -0.050465126
7.8502245 -4.024117 -0.048710681
7.9563789 -4.0419087 -0.043815769
8.005003 -4.0674143 -0.046724133
8.4950008 -4.0565386 -0.0088461535
8.5284634 -4.0498395 -0.037146114
8.6525707 -4.0524282 -0.043000005
8.7558813 -4.050519 -0.034920011
8.8511648 -4.0523982 -0.041369863
8.9520111 -4.0517721 -0.033503935
9.0509205 -4.0478339 -0.025333336
9.151145 -4.0513301 -0.016009171
9.2500486 -4.0489054 -0.010238102
9.3299999 -4.0484219 -0.0076315766
9.458334 -4.0550003 -0.015000001
9.5050001 -4.0650001 -0.0049999999
9.6929998 -4.0469999 -0.041000001
9.7049999 -4.0596156 -0.05346154
11.255 -4.0950003 -0.0049999999
4.6838536 -3.9513214 -0.047988504
5.395 -3.9650002 -0.064999998
5.4499998 -3.9650002 -0.039999999
6.4857316 -3.9510975 -0.048414633
6.5050001 -3.9200006 -0.085000001
6.6340919 -3.9440913 -0.046818186
8.4950008 -3.9650002 -0.0066666678
8.5270557 -3.9511523 -0.035102554
8.6529255 -3.9555652 -0.032169819
8.7544422 -3.9480548 -0.028703704
8.8518629 -3.9536278 -0.035000015
8.9541998 -3.9546993 -0.028599998
9.0517826 -3.950702 -0.020867765
9.1496906 -3.9436924 -0.013846152
9.2440329 -3.9516666 -0.010694448
9.335001 -3.9538891 -0.0094444435
9.4875011 -3.9375 -0.0049999999
9.5300007 -3.9400001 -0.050000001
9.688571 -3.9421432 -0.04857143
9.7049999 -3.9500003 -0.057
4.6847715 -3.8510456 -0.050813951
5.4949999 -3.8350003 -0.094999999
5.5625 -3.8499999 -0.072500005
5.6516671 -3.8516669 -0.045000002
6.4844995 -3.8605008 -0.0515
6.5050001 -3.8600001 -0.090000004
6.6312509 -3.846875 -0.042499997
8.4950008 -3.8521435 -0.0050000004
8.5308704 -3.8494446 -0.035303019
8.6581259 -3.8454175 -0.028958336
8.7556896 -3.8490238 -0.024080453
8.8568363 -3.8566329 -0.028367352
8.9519138 -3.8503335 -0.024749996
9.0500336 -3.8483987 -0.018071886
9.1443996 -3.8495526 -0.015820887
9.2448988 -3.8455005 -0.0138
9.3447056 -3.8411763 -0.010294124
9.4377279 -3.8353028 -0.0071212105
9.5250006 -3.8350003 -0.0049999999
9.689168 -3.8483338 -0.040000003
9.7050009 -3.8464286 -0.052857142
10.248334 -3.8150001 -0.038333334
11.085001 -3.8850002 -0.015000001
11.185001 -3.8650002 -0.0049999999
11.275001 -3.845 -0.0049999999
11.425001 -3.8650002 -0.015000001
11.535002 -3.8350003 -0.0049999999
4.6850023 -3.7537313 -0.052887328
4.7249999 -3.7249999 -0.0049999999
4.8483334 -3.7283337 -0.0050000004
4.9650002 -3.7283337 -0.028333332
5.0469999 -3.723 -0.030999999
5.1400003 -3.7249999 -0.042499997
5.2316675 -3.7283337 -0.035
5.3587503 -3.7237504 -0.07
5.415 -3.7400002 -0.089999996
5.5299997 -3.7249999 -0.075000003
5.605 -3.7249999 -0.064999998
6.625001 -3.7535717 -0.040714286
8.4950008 -3.7633338 -0.0050000004
8.5314493 -3.7512908 -0.03575268
8.6527424 -3.7500005 -0.030161295
8.7591553 -3.7475841 -0.022977525
8.8530521 -3.7518647 -0.026610171
8.9480228 -3.7484536 -0.024136689
9.0504894 -3.7484505 -0.018185833
9.140214 -3.7523453 -0.015707958
9.2522564 -3.7517753 -0.010000005
9.344079 -3.7469738 -0.0085526379
9.4419575 -3.7563045 -0.0054347822
9.6786366 -3.7486367 -0.055
9.7049999 -3.7424998 -0.05125
10.245 -3.7400002 -0.030000001
10.785002 -3.7550004 -0.025
10.85 -3.7599998 -0.02
5.0650001 -3.6950002 -0.0049999999
5.1349998 -3.6950002 -0.015000001
6.6330009 -3.652 -0.051999997
8.4950008 -3.6670003 -0.0049999999
8.5331841 -3.6486359 -0.035588261
8.651165 -3.6492469 -0.027602741
8.753171 -3.6490388 -0.022884613
8.8545094 -3.6512744 -0.028529424
8.9518604 -3.650785 -0.024752064
9.0503578 -3.6483855 -0.018779511
9.1457481 -3.647243 -0.013785045
9.2476921 -3.6523087 -0.009102569
9.3436441 -3.6497459 -0.0088983076
9.4364281 -3.6496429 -0.0082142847
9.5650005 -3.6516671 -0.061666667
9.6691675 -3.6616669 -0.079999991
9.7481251 -3.6804688 -0.048125003
9.850668 -3.6729991 -0.044666663
9.9464312 -3.6792843 -0.044142853
10.049752 -3.6789989 -0.035250004
10.142001 -3.6709995 -0.039500002
10.253946 -3.6739476 -0.041315787
10.338335 -3.6830001 -0.025
10.455 -3.6850002 -0.025714288
10.549667 -3.6736672 -0.019666666
10.661364 -3.6759095 -0.016818183
10.7425 -3.6375 -0.02
10.863335 -3.6616669 -0.021666666
10.945 -3.6550002 -0.025
11.015 -3.6500001 -0.02
11.105 -3.6150002 -0.025
6.6272225 -3.5483334 -0.04277778
8.4950008 -3.5483336 -0.0050000004
8.536027 -3.5517173 -0.036435924
8.652379 -3.5477383 -0.02988096
8.7512264 -3.5455661 -0.025943402
8.8498745 -3.5520084 -0.027649576
8.9491358 -3.5539482 -0.021541353
9.0504484 -3.5490005 -0.017551705
9.1458702 -3.5513482 -0.013086954
9.2494335 -3.5529752 -0.0087974761
9.3428955 -3.5557017 -0.0069298223
9.439167 -3.5549998 -0.005833332
9.5199995 -3.55 -0.050000001
9.6610012 -3.537667 -0.091666661
9.7483339 -3.5300002 -0.083333336
9.8458347 -3.5383334 -0.075833336
9.9559097 -3.5313637 -0.065000013
10.048847 -3.5450008 -0.058846157
10.155001 -3.5307148 -0.055
10.245 -3.5261116 -0.046111114
10.332779 -3.5450001 -0.041666664
10.437001 -3.5409999 -0.033
10.585001 -3.5850003 -0.025
10.6425 -3.5575001 -0.015000001
10.715 -3.55 -0.025
11.195 -3.5850003 -0.015000001
6.6330009 -3.4490001 -0.055
8.4950008 -3.4800003 -0.0049999999
8.5370302 -3.4531815 -0.03234265
8.6522417 -3.4482758 -0.02482759
8.7574253 -3.4443939 -0.021868682
8.8534718 -3.4517567 -0.025540542
8.9490824 -3.4495215 -0.021608688
9.0536938 -3.4560871 -0.017282607
9.1503992 -3.4528003 -0.012099998
9.2481899 -3.4551449 -0.0090579782
9.3400002 -3.4560866 -0.0071739107
9.4585009 -3.4514999 -0.0050000008
9.5050001 -3.4050002 -0.0049999999
9.6592875 -3.476429 -0.093571432
9.7549992 -3.480556 -0.086666666
9.8442316 -3.4742312 -0.078846157
9.9516668 -3.47 -0.076111116
10.0505 -3.4695003 -0.069499999
10.140715 -3.4685719 -0.062857136
10.252779 -3.4794445 -0.060555559
10.365001 -3.4800003 -0.054999996
10.443001 -3.4850001 -0.044999994
10.5575 -3.4899998 -0.045000002
10.6525 -3.47 -0.035
10.73 -3.4474998 -0.030000001
10.844999 -3.4183335 -0.025
6.6330009 -3.3610001 -0.031000003
8.4933348 -3.3191669 -0.0175
8.5382414 -3.353828 -0.035689648
8.6469765 -3.3448682 -0.026973685
8.7597256 -3.3529117 -0.023021974
8.8507967 -3.3556716 -0.023823528
8.9492321 -3.3460593 -0.022529412
9.0505104 -3.3511796 -0.01702247
9.1401196 -3.3467076 -0.011707323
9.2472439 -3.3568368 -0.0074489773
9.3404541 -3.3486366 -0.0077272705
9.4450006 -3.3450005 -0.0050000004
9.5100002 -3.3450005 -0.0049999999
9.6650009 -3.325 -0.089999996
9.7700005 -3.3450005 -0.085000001
9.8525009 -3.3325 -0.085000001
9.9433346 -3.3716667 -0.079999998
10.155001 -3.3900001 -0.0625
10.205 -3.375 -0.055
10.315001 -3.3700001 -0.050000001
10.748334 -3.3183334 -0.028333336
10.805 -3.3050003 -0.025
10.975 -3.375 -0.025
6.626667 -3.2366669 -0.045000002
8.4938545 -3.2669997 -0.02557143
8.5343533 -3.2442746 -0.029516127
8.6542997 -3.2524419 -0.028720934
8.7519016 -3.2484996 -0.0222
8.8496799 -3.2475688 -0.025642205
8.9467392 -3.2528267 -0.019782607
9.0465822 -3.2464633 -0.014024394
9.1498213 -3.245481 -0.010421694
9.2487774 -3.2432225 -0.0061111092
9.3482571 -3.2484889 -0.0054651136
9.4139996 -3.2470002 -0.0050000008
9.562501 -3.2525001 -0.094999999
9.6416674 -3.2466671 -0.093333334
9.751668 -3.2638888 -0.087222219
9.8466663 -3.2500005 -0.078333333
9.9550009 -3.2533336 -0.070000008
10.059 -3.2490001 -0.063000008
10.145 -3.246429 -0.053571425
10.240001 -3.2599998 -0.044999998
10.375 -3.2450001 -0.044999998
10.438334 -3.2350001 -0.035
10.915 -3.2050004 -0.025
11.115 -3.2650001 -0.015000001
6.6350007 -3.1849999 -0.025
8.5403814 -3.1513588 -0.031913582
8.648386 -3.1492648 -0.024852943
8.7465057 -3.152945 -0.021849316
8.855895 -3.1528208 -0.022524748
8.9454718 -3.1529043 -0.019380948
9.0519428 -3.1506493 -0.013333333
9.1473532 -3.1508822 -0.0090000061
9.2460518 -3.1585083 -0.0090350891
9.336482 -3.14537 -0.0049999994
9.422143 -3.1778574 -0.0050000004
9.5583344 -3.1583333 -0.094999999
9.647501 -3.1800001 -0.092499994
9.7550001 -3.155 -0.079999998
9.8550005 -3.135 -0.064999998
9.9450006 -3.1600003 -0.064999998
10.025 -3.1550002 -0.060000002
10.165001 -3.1500001 -0.060000002
10.265 -3.105 -0.055
10.460001 -3.1650002 -0.044999998
10.565001 -3.1150002 -0.035
10.68 -3.1800001 -0.030000001
10.738335 -3.1516669 -0.025
10.835001 -3.1150002 -0.015000001
6.6200004 -3.0400002 -0.057500005
8.5400324 -3.0512762 -0.031689651
8.6540289 -3.0486119 -0.021250002
8.7509155 -3.0428874 -0.017394368
8.8514805 -3.0510566 -0.02035211
8.9488773 -3.0482655 -0.019999998
9.0537958 -3.0546384 -0.013554218
9.1462002 -3.0551338 -0.0096666738
9.2400007 -3.0584619 -0.007307691
9.342 -3.0480001 -0.0050000008
9.4750013 -3.0250003 -0.094999999
9.5410004 -3.0390003 -0.090999998
9.6499996 -3.05 -0.082500003
9.7583332 -3.0283332 -0.081666671
9.8570004 -3.0310001 -0.075000003
9.9430008 -3.063 -0.070999995
10.048334 -3.0250001 -0.055000007
10.155001 -3.0750003 -0.055
10.245 -3.0250001 -0.050000001
10.365001 -3.0600002 -0.044999998
10.455 -3.0050001 -0.035
10.635001 -3.0750003 -0.025
6.6150002 -2.9100003 -0.050000001
8.540144 -2.9505997 -0.030066663
8.6548347 -2.9489341 -0.025983602
8.7498035 -2.9517999 -0.016733335
8.8470221 -2.9509528 -0.021547625
8.9474163 -2.9568675 -0.015989011
9.0439205 -2.951 -0.011461543
9.1526203 -2.9523807 -0.0083333319
9.2412519 -2.9520836 -0.0062499987
9.3450003 -2.9514289 -0.011428573
9.4250011 -2.9950001 -0.094999999
9.585001 -2.9150002 -0.094999999
9.6499996 -2.9300001 -0.087499999
9.7399998 -2.9400001 -0.081249997
9.835 -2.9375002 -0.072500005
9.9309998 -2.951 -0.067000002
10.005 -2.9250002 -0.064999998
10.338333 -2.9416671 -0.048333336
10.405001 -2.9349999 -0.035
6.625 -2.855 -0.064999998
8.1950006 -2.8050001 -0.035
8.2283344 -2.8083334 -0.044999998
8.3590002 -2.8184295 -0.041000001
8.4523745 -2.8175004 -0.044374995
8.5359278 -2.8469872 -0.029161483
8.648634 -2.8462124 -0.01939394
8.7513351 -2.8460009 -0.015333332
8.8540878 -2.8515453 -0.017909091
8.9529781 -2.8499999 -0.014285718
9.0429249 -2.8470757 -0.010849059
9.1514988 -2.8487504 -0.0069999984
9.2476473 -2.8517647 -0.0061764689
9.3200016 -2.8675003 -0.0050000004
9.4625006 -2.8625002 -0.094999999
9.5462513 -2.8650002 -0.093749993
9.6330013 -2.8729999 -0.091000006
9.8050003 -2.885 -0.075000003
7.0550003 -2.7050002 -0.055
7.2950006 -2.7050002 -0.085000001
7.4710007 -2.7130003 -0.045000002
7.541429 -2.7128572 -0.06214286
7.6383348 -2.7083335 -0.031666666
7.8550005 -2.7050002 -0.0049999999
8.0650005 -2.7050002 -0.085000001
8.1838894 -2.7438893 -0.037222221
8.2321138 -2.7434452 -0.052999996
8.3535728 -2.746429 -0.043928571
8.4540234 -2.7506094 -0.038414638
