# .PCD v0.7 - Point Cloud Data file format
VERSION 0.7
FIELDS x y z rgb
SIZE 4 4 4 4
TYPE F F F U
COUNT 1 1 1 1
WIDTH 1307
HEIGHT 1
VIEWPOINT 0 0 0 1 0 0 0
POINTS 1307
DATA ascii
88.431831 -25.5 3.1090915 255
89.536964 -25.441305 3.1804349 255
90.507156 -25.342859 3.1285713 255
91.510719 -25.517857 3.2071433 255
92.444748 -25.513159 3.4078944 1704164
93.44474 -25.544737 3.4657893 1714363
94.28334 -25.533337 3.5000005 21930
95.850006 -25.950001 3.55 65280
101.56818 -25.568186 3.9500005 3014864
102.35 -25.616667 3.9500003 255
103.05 -25.550001 3.8499999 255
70.550003 -24.050001 3.3 16711680
79.702637 -24.434212 3.5815794 16711680
80.344994 -24.524998 3.3699996 16711680
86.740005 -24.33 3.0499997 255
87.491379 -24.439659 3.0879316 255
88.488716 -24.437096 3.1822586 255
89.532845 -24.530001 3.2814281 255
90.519455 -24.453392 3.316102 255
91.520409 -24.401852 3.4166672 255
92.443634 -24.471277 3.4648933 655604
93.300003 -24.512499 3.375 2047903
94.250008 -24.85 3.3499999 65280
101.78334 -24.683334 3.9500003 11141205
102.15 -24.650002 3.95 16711680
50.950001 -23.650002 3.95 16711680
69.750008 -23.35 3.1500001 16711680
79.560799 -23.555401 3.547297 16254464
80.404556 -23.61364 3.4409091 16711680
86.680016 -23.510002 3.0499997 255
87.515007 -23.535002 3.0849998 255
88.538895 -23.56111 3.1833336 255
89.536362 -23.527273 3.2772725 721139
90.530792 -23.440388 3.3250005 262394
91.515495 -23.527588 3.3775861 525553
92.621826 -23.404928 3.5133803 6751124
93.250008 -23.750002 3.55 16711680
103.15 -23.650002 3.8499999 255
69.700005 -22.550001 3.5500002 16711680
70.610001 -22.530001 3.3899999 16711680
71.650002 -22.050001 3.45 16711680
79.533333 -22.458336 3.625 16711680
80.550026 -22.515387 3.5846159 16711680
86.705559 -22.550001 3.0499997 255
87.534622 -22.688463 3.1115384 255
88.683342 -22.450003 3.1916666 255
89.462502 -22.500002 3.26875 983279
90.579704 -22.493246 3.2472975 2687189
91.443947 -22.480303 3.298485 2492368
92.742439 -22.487976 3.6132915 11927624
51.549999 -21.650002 3.1500001 16711680
69.750008 -21.450001 3.0999999 16711680
70.550003 -21.516668 3.55 16711680
71.750008 -21.450001 3.45 16711680
79.768417 -21.415789 3.5657899 16711680
80.352097 -21.525007 3.583333 15993344
85.750008 -21.050001 3.05 255
86.550011 -21.370001 3.0700002 255
87.592857 -21.335714 3.0880952 255
88.449997 -21.640476 3.1357145 255
89.53334 -21.425001 3.1666667 1376489
90.543938 -21.507574 3.177273 2490584
91.552322 -21.436049 3.2686048 3473609
92.597687 -21.497677 3.6069772 12714553
102.95 -21.600002 3.95 255
50.75 -20.85 3.1500001 16711680
69.725006 -20.400002 3.4000001 16711680
70.508331 -20.208336 3.4833333 15993344
71.650002 -20.450001 3.45 16711680
78.950005 -20.050001 3.4500003 16711680
79.613258 -20.250011 3.6010203 16450304
80.050003 -20.373529 3.3147061 16711680
86.707146 -20.650003 3.05 255
87.577278 -20.577272 3.0499997 255
88.477287 -20.477274 3.0772727 255
89.550003 -20.304544 3.1681821 255
90.554169 -20.50625 3.1541672 655604
91.56189 -20.523808 3.3261905 5111984
92.592125 -20.489258 3.5911219 12321343
103.05 -20.6 3.9000001 255
69.750008 -19.416668 3.5666666 16711680
70.400009 -19.650002 3.8 16711680
71.700005 -19.150002 3.6500001 16711680
79.690315 -19.44861 3.5458331 16580864
80.049995 -19.860001 3.26 16711680
86.750008 -19.359093 3.0499997 255
87.547737 -19.465912 3.0727284 255
88.502823 -19.523584 3.1575472 255
89.506599 -19.506603 3.2481132 131324
90.513596 -19.460388 3.3019485 1376489
91.471962 -19.470732 3.3536584 2883794
92.565338 -19.491467 3.5711398 12124484
102.95 -19.35 3.95 255
51.549999 -18.150002 3.3499999 16711680
69.700005 -18.500004 3.4357142 15471104
70.54567 -18.497826 3.5369565 16711680
71.750008 -18.550001 3.3 16711680
79.451813 -18.48451 3.4960177 16580864
86.820015 -18.470001 3.0499997 255
87.465408 -18.561543 3.0807698 255
88.498009 -18.670002 3.1780005 255
89.510719 -18.57143 3.2571428 255
90.502274 -18.497761 3.2365677 590069
91.567726 -18.572577 3.4080644 6160544
92.583519 -18.535158 3.5703142 13565999
102.95 -18.25 3.95 8355584
69.78334 -17.405558 3.561111 16711680
70.554878 -17.479267 3.5207305 16450304
71.700005 -17.400002 3.55 16711680
79.19751 -17.50246 3.5336068 16646144
80.050034 -17.389471 3.3657899 16711680
86.675003 -17.550001 3.05 255
87.640915 -17.304546 3.0954545 255
88.450005 -17.383333 3.1537044 255
89.58931 -17.496429 3.128572 255
90.537498 -17.50625 3.1109383 458999
91.535713 -17.541431 3.3499999 10485854
92.613998 -17.499176 3.6000009 13828139
102.95 -17.950001 3.95 32639
103.15 -17.650002 3.95 255
51.549999 -16.050001 3.8499999 65280
69.803329 -16.450001 3.5266666 16711680
70.543472 -16.476229 3.4942622 16646144
71.700005 -16.325001 3.4499998 16711680
79.372444 -16.425508 3.5581629 16711680
80.050026 -16.468521 3.427778 16711680
86.693748 -16.3375 3.0499995 255
87.49791 -16.460419 3.0750012 255
88.509995 -16.370001 3.1550009 255
89.5261 -16.426086 3.2304354 255
90.519058 -16.480955 3.1535718 393464
91.511765 -16.439707 3.3455884 5505194
92.523582 -16.536779 3.5739677 13238579
93.27002 -16.343336 3.5566671 15007769
102.65 -16.550001 3.75 16711680
35.200001 -15.200001 3.2 16711680
50.25 -15.45 3.75 16711680
51.049999 -15.35 3.8499999 16711680
69.817253 -15.448361 3.5073769 16646144
70.555473 -15.48288 3.4582191 16711680
71.853981 -15.950002 3.4779997 16711680
72.50164 -15.94999 3.4887102 16711680
73.501022 -15.949989 3.4927082 16711680
74.50425 -15.949989 3.5127664 16646144
75.489143 -15.949988 3.5015461 16646144
76.501526 -15.949988 3.5015459 16646144
77.499939 -15.949989 3.4914894 16646144
78.501633 -15.94999 3.4930112 16646144
79.439316 -15.793242 3.4946804 16646144
80.050003 -15.95 3.333333 16188928
86.827789 -15.527778 3.0499997 255
87.507423 -15.54149 3.0670223 254
88.433357 -15.574999 3.1666675 255
89.563515 -15.566216 3.2229733 393464
90.593216 -15.563513 3.2621627 393464
91.448318 -15.553391 3.4262722 4849844
92.543228 -15.487583 3.645303 15400978
93.150002 -15.15 3.8499999 16711680
103.40001 -15.6 3.8499999 8355584
19.192856 -14.210712 3.5071433 16711680
34.549999 -14.683334 3.5833335 16711680
35.150002 -14.516668 3.6500003 16711680
40.049999 -14.55 3.05 16711680
45.049999 -14.25 3.45 16711680
51.416668 -14.416666 3.6833334 16711680
69.825943 -14.465662 3.523494 16646144
70.578209 -14.496737 3.4608696 16711680
71.483337 -14.534693 3.5112617 16711680
72.502098 -14.550006 3.4989355 16646144
73.506126 -14.550008 3.5030611 16711680
74.497467 -14.550008 3.4984848 16711680
75.49794 -14.550008 3.5071425 16711680
76.525009 -14.553133 3.4989583 16711680
77.532417 -14.582864 3.509124 16711680
78.475494 -14.607777 3.5077641 16711680
79.213478 -14.69231 3.4750001 16711680
86.78334 -14.561111 3.0499997 255
87.536682 -14.463334 3.0833333 255
88.542 -14.345997 3.1580005 255
89.537086 -14.679033 3.1758065 255
90.545235 -14.533336 3.1714294 2752724
91.522743 -14.534849 3.3378792 6817678
92.595711 -14.43276 3.637933 15335444
103.65001 -14.6 3.9000001 32639
19.189034 -13.492682 3.5109766 16646144
29.449999 -13.25 3.6500001 16711680
34.549999 -13.25 3.1500001 16711680
45.049999 -13.85 3.45 16711680
50.574997 -13.5 3.325 16711680
51.416668 -13.483334 3.6833332 16711680
69.843002 -13.5053 3.4982355 16711680
70.557083 -13.507138 3.4551015 16711680
86.630005 -13.54 3.0499997 1645004
87.489998 -13.59 3.0660002 255
88.510002 -13.660001 3.1399999 255
89.573532 -13.414707 3.0970585 2949330
90.686348 -13.501515 3.0803041 458999
91.553856 -13.553847 3.3538461 7667849
92.570877 -13.4908 3.6020021 14942234
103.75001 -13.35 3.95 255
19.201143 -12.50682 3.4761364 16711680
24.410002 -12.31 3.3299999 16711680
34.549999 -12.483333 3.55 16711680
35.183334 -12.550001 3.4833333 16711680
44.349998 -12.65 3.1500001 16711680
45.283337 -12.25 3.4833333 11141205
49.849998 -12.116667 3.2833335 16711680
50.559994 -12.510001 3.4200006 16711680
51.390003 -12.41 3.7700002 16711680
56.950001 -12.25 3.05 16711680
57.505005 -12.199999 3.0749996 16711680
58.57069 -12.20862 3.1224144 16711680
59.547142 -12.229999 3.1671436 16711680
60.474987 -12.245 3.1975007 16711680
61.515213 -12.24348 3.2391305 16319744
62.508003 -12.25 3.2700002 16711680
63.131256 -12.206251 3.2187498 16711680
69.858482 -12.501584 3.467895 16711680
70.559837 -12.490587 3.4836636 16711680
86.650009 -12.916667 3.05 255
87.650002 -12.27 3.0900002 255
88.459999 -12.43 3.1499999 19634
89.57309 -12.665384 3.0884614 15044
90.646652 -12.500002 3.0966671 786674
91.6371 -12.533872 3.3499999 6946964
92.588394 -12.510001 3.6084006 14811164
104.15 -12.25 3.95 255
19.203268 -11.498912 3.495652 16711680
23.949999 -11.95 3.95 16711680
24.350002 -11.483334 3.5666666 16711680
29.549999 -11.85 3.05 16711680
34.549999 -11.4 3.4749999 16711680
35.192856 -11.492856 3.4357147 16711680
44.349998 -11.75 3.55 16711680
45.375 -11.575 3.5 16711680
49.850002 -11.400001 3.3500001 16711680
50.550007 -11.482143 3.4892859 16711680
51.450001 -11.47 3.6900003 16711680
56.900005 -11.472223 3.072222 16711680
63.185463 -11.469358 3.3467746 16385024
69.867226 -11.492431 3.4742429 16711680
70.562645 -11.50817 3.4536359 16646144
86.816673 -11.316668 3.05 255
87.512505 -11.493751 3.0562496 255
88.210007 -11.83 3.1100001 39270
89.775009 -11.537499 3.0749998 255
90.676468 -11.461765 3.102942 255
91.427795 -11.487036 3.2722223 7405709
92.57238 -11.500399 3.6420009 14090279
19.205004 -10.494001 3.4949999 16711680
24.307146 -10.207143 3.4785717 16711680
29.549999 -10.85 3.45 16711680
34.549999 -10.725 3.3499999 16711680
35.178574 -10.464286 3.5928574 16711680
40.25 -10.45 3.25 16711680
44.383331 -10.516666 3.4833333 16711680
45.364285 -10.378571 3.4642859 16711680
49.876667 -10.416668 3.3099999 16711680
50.568455 -10.457893 3.4394741 16711680
51.533329 -10.47222 3.4166667 16711680
56.885124 -10.433782 3.1310818 16711680
57.692863 -10.650001 3.0642858 14296064
58.522728 -10.650002 3.0863636 16711680
59.521435 -10.649999 3.1261907 16711680
60.516666 -10.649998 3.1766675 16711680
61.566669 -10.649997 3.2111111 16711680
62.398571 -10.45571 3.2214291 16711680
63.188446 -10.487178 3.3628209 16711680
69.882744 -10.489605 3.4866335 16711680
70.566597 -10.505551 3.4555557 16450304
86.850006 -10.45 3.05 255
87.378578 -10.464286 3.0499997 4844
88.850006 -10.55 3.05 255
89.477272 -10.304545 3.0499997 255
90.633324 -10.503333 3.1100011 255
91.489136 -10.576087 3.2630436 7929989
92.607124 -10.488282 3.6242201 13041719
19.206766 -9.5013494 3.5013514 16711680
22.449999 -9.1499996 3.75 16711680
23.949999 -9.1499996 3.95 16711680
24.5 -9.4499998 3.5624998 16711680
29.550001 -9.29 3.6500001 13382400
34.549999 -9.5233345 3.4966669 16711680
35.196156 -9.3423071 3.5115385 16711680
40.183334 -9.6833334 3.75 16711680
44.349998 -9.75 3.8499999 16711680
45.350002 -9.4333344 3.4583335 16711680
49.886654 -9.5066652 3.3400009 16711680
50.56522 -9.479661 3.438982 16515584
51.754078 -9.6397924 3.5581634 16711680
52.50589 -9.639225 3.5058825 16711680
53.5 -9.6500092 3.5 16711680
54.503063 -9.6500082 3.4938776 16711680
55.500019 -9.6538563 3.5038457 16711680
56.530708 -9.6666746 3.4719303 16711680
57.49818 -9.6620541 3.6451817 16646144
58.49049 -9.6702576 3.7094944 16385024
59.486111 -9.675004 3.7472222 16450304
60.500671 -9.6886692 3.7873333 16058624
61.464748 -9.6959019 3.8172121 16058624
62.51276 -9.6074476 3.5936182 16646144
63.519405 -9.7198992 3.5021508 16711680
64.497246 -9.7055616 3.479444 16711680
65.45491 -9.7905598 3.4772732 16711680
66.532219 -9.835269 3.4941857 16711680
67.478836 -9.7347479 3.4838982 16711680
68.502838 -9.7443399 3.4933958 16711680
69.689369 -9.6111965 3.4927857 16646144
70.382164 -9.7902317 3.474138 16515584
86.78334 -9.7166672 3.05 255
87.5 -9.6166668 3.05 43605
88.100006 -9.1999998 3.0999999 255
89.550011 -9.4800005 3.0499997 255
90.67646 -9.5058823 3.1441185 721139
91.392319 -9.4769239 3.2461538 4456634
92.667816 -9.478713 3.6133676 13763114
19.208624 -8.4948254 3.5129302 16711680
22.450001 -8.7166672 3.75 16711680
24.350006 -8.5333338 3.4633334 16123904
29.544996 -8.3499994 3.53 15014144
34.552708 -8.4175673 3.4743245 16711680
35.19577 -8.4076281 3.4720335 16711680
40.216667 -8.4666672 3.4333334 16711680
44.416668 -8.3500004 3.4500003 16711680
45.413998 -8.3739996 3.5259998 16711680
49.917801 -8.4313555 3.3432202 16711680
50.609016 -8.4578705 3.4397626 16385024
51.502247 -8.1433277 3.4711103 16580864
52.49889 -8.0891247 3.4673913 16711680
53.493328 -8.0685501 3.4891748 16646144
54.507133 -8.0499926 3.4918365 16711680
55.498032 -8.050992 3.496999 16711680
56.479923 -8.0883121 3.511683 16646144
57.546841 -8.0888891 3.6190493 16515584
58.447269 -8.1136379 3.6454546 16580864
59.492863 -8.1499968 3.6833332 16319744
60.492592 -8.1499958 3.7277775 16450304
61.470936 -8.1499968 3.7779069 16711680
62.589397 -8.326149 3.4756882 16646144
63.499954 -8.1500063 3.5 16711680
64.554077 -8.2191868 3.4828765 16711680
65.459526 -8.2943039 3.5202541 16711680
66.455772 -8.2673559 3.4888427 16646144
67.499962 -8.25 3.5000005 16711680
68.5 -8.25 3.5000005 16711680
69.671227 -8.4258595 3.4936771 16646144
87.650002 -8.4444447 3.0555551 458999
88.450005 -8.29 3.0900002 255
89.491173 -8.4382362 3.102941 15555
90.650002 -8.4833345 3.1194451 655604
91.509369 -8.4781256 3.2781248 3604679
92.705688 -8.4926062 3.6239138 14483744
19.215492 -7.5075235 3.5137162 16711680
23.949999 -7.9499998 3.95 16711680
24.307781 -7.456666 3.4500005 16711680
29.600435 -7.422173 3.5056522 16580864
30.497656 -7.5602741 3.4752331 16646144
31.513102 -7.5529056 3.489805 16711680
32.485512 -7.5640116 3.4771023 16646144
33.521561 -7.5674257 3.4848621 16646144
34.369781 -7.6343703 3.4791665 16711680
35.386032 -7.3195467 3.4972084 16580864
36.476166 -7.0612111 3.4892523 16646144
37.523983 -7.0841427 3.496341 16646144
38.499996 -7.049993 3.4999995 16711680
39.464867 -7.0896673 3.5028932 16646144
40.202087 -7.2749987 3.4916666 16711680
44.416668 -7.5333338 3.5833337 16711680
45.428577 -7.4392858 3.4874997 16711680
49.902374 -7.5011902 3.4261901 16711680
50.578999 -7.4975791 3.460484 16711680
51.443752 -7.6937499 3.54375 15666944
52.421425 -7.3000007 3.7785714 16711680
53.58334 -7.3699999 3.9166672 16711680
54.361107 -7.25 3.9500003 16711680
55.950001 -7.0499997 3.95 16711680
87.497833 -7.4804358 3.0499997 255
88.685303 -7.455883 3.1441178 255
89.48143 -7.4728575 3.1928577 460784
90.615623 -7.4437499 3.1437504 255
91.45665 -7.4933333 3.2800002 3604679
92.667862 -7.5116043 3.6062515 13172789
93.523331 -7.1211081 3.6855555 14614559
94.245232 -7.1071444 3.6785712 15466514
95.450005 -7.0499997 3.8499999 16711680
96.730003 -7.0900002 3.8500001 16711680
97.675003 -7.1625004 3.9375002 6226079
98.292862 -7.1928577 3.9500003 10682459
100.65 -7.1500001 3.95 255
101.25001 -7.0499997 3.8499999 16711680
19.222004 -6.5160003 3.4949989 16711680
23.950001 -6.416667 3.9500003 16711680
24.333906 -6.411016 3.381356 16711680
29.50967 -6.481935 3.5172272 16254464
40.259266 -6.4953713 3.4675927 16711680
44.450005 -6.5722222 3.55 16711680
45.397823 -6.4390912 3.5045457 16646144
49.919792 -6.5088258 3.5331936 16580864
50.597549 -6.5741386 3.5031033 16515584
51.481251 -6.9499979 3.8374991 16711680
52.453999 -6.9499979 3.8699994 16711680
53.450001 -6.9499993 3.9214289 16711680
54.25 -6.9499998 3.95 16711680
86.875008 -6.5999999 3.05 255
87.531258 -6.6062493 3.0499995 255
88.530655 -6.5112906 3.1112909 255
89.481575 -6.507895 3.184211 255
90.720825 -6.4604177 3.2375002 5609
91.474998 -6.4833341 3.3083336 3932354
92.264748 -6.502461 3.5434425 10944599
93.54998 -6.5741377 3.4431028 9502829
94.438156 -6.5473704 3.6315789 14223899
95.460403 -6.3479171 3.7145832 4869224
96.577049 -6.4418926 3.8067565 8128124
97.563065 -6.4282613 3.8499994 7211909
98.465126 -6.4803028 3.9075754 7931774
99.42646 -6.3147058 3.9205883 6163603
100.73 -6.3299999 3.8500001 13369395
101.45 -6.1500001 3.95 16711680
103.8 -6.4000001 3.5 16711680
104.15 -6.4499998 3.8499999 16711680
19.465443 -5.6345472 3.5069103 16646144
20.494902 -5.5499945 3.4969389 16646144
21.499996 -5.5499945 3.5 16580864
22.499052 -5.545187 3.5076923 16515584
23.504448 -5.5519748 3.5034657 16646144
24.478786 -5.704545 3.4856067 16646144
25.499992 -5.5499945 3.5000002 16711680
26.500004 -5.5499945 3.5 16646144
27.500004 -5.5499945 3.4999995 16711680
28.628738 -5.4775834 3.5143678 16385024
29.461567 -5.6690774 3.5326591 16580864
30.484577 -5.7228389 3.5561738 16711680
31.492256 -5.7542257 3.5119727 16711680
32.540474 -5.7559528 3.507143 16711680
33.451408 -5.7570419 3.5063379 16711680
34.722553 -5.25 3.5401967 16580864
35.475765 -5.2530923 3.4994848 16515584
36.5149 -5.2595744 3.4797866 16646144
37.50544 -5.255435 3.4847825 16711680
38.564068 -5.2937031 3.4633329 16711680
39.068745 -5.2874999 3.3499997 16711680
40.537399 -5.650001 3.4840655 16646144
41.496426 -5.6052513 3.4820442 16711680
42.487019 -5.6149383 3.465584 16580864
43.483841 -5.6287422 3.4665349 16711680
44.510155 -5.5614886 3.4939191 16646144
45.424492 -5.6118226 3.4954548 16646144
46.506474 -5.6425929 3.4870372 16711680
47.494114 -5.6480384 3.4980392 16711680
48.496517 -5.6490083 3.497525 16711680
49.716373 -5.5622005 3.5256097 16711680
50.417297 -5.7212863 3.4737623 16711680
52.650002 -5.1499996 3.55 32639
53.674999 -5.5124998 3.8500001 2031839
87.631813 -5.4863634 3.0499997 255
88.489395 -5.5015159 3.1106069 255
89.496346 -5.4524393 3.1841466 394229
90.624992 -5.5340915 3.2499998 721648
91.502625 -5.4486842 3.3921056 655604
92.487984 -5.5563297 3.5196209 6422684
93.546333 -5.4524384 3.6219511 6817424
94.572456 -5.4540811 3.6846943 6429823
95.434227 -5.4263167 3.7394738 5249683
96.401512 -5.4287872 3.7075758 3014864
97.493767 -5.4875002 3.7968745 3342539
98.668495 -5.564815 3.8685174 4325564
99.441673 -5.5 3.9333329 3801284
100.49167 -5.6333342 3.9333339 11141205
101.25002 -5.2833338 3.9500003 11141205
102.55 -5.4499998 3.95 16711680
103.25001 -5.9499998 3.95 16711680
104.58334 -5.2166667 3.75 16711680
22.6 -4.52 3.4399998 16711680
28.832743 -4.4881802 3.5027273 15797504
44.520195 -4.4711542 3.5096161 16711680
45.21323 -4.492177 3.496259 16711680
46.800003 -4.0499997 3.8250003 16711680
47.497829 -4.0500007 3.8586955 16711680
48.26667 -4.0499997 3.9333334 16711680
49.941689 -4.499999 3.5324078 16646144
50.049999 -4.3999996 3.1000001 16711680
51.75 -4.2166667 3.1500003 255
52.577278 -4.4681821 3.4227276 6119
53.720001 -4.5 3.8500001 255
87.566101 -4.4629035 3.0532262 255
88.535362 -4.5060973 3.1134157 254
89.48999 -4.4642859 3.1585722 917744
90.652176 -4.4500003 3.2369561 327929
91.517593 -4.5404763 3.3404758 852209
92.471397 -4.4666667 3.4261904 655604
93.543686 -4.5006332 3.5689864 787438
94.573898 -4.5171638 3.6947775 3474373
95.500793 -4.4663944 3.7877052 2035409
96.473747 -4.522882 3.7686439 2492623
97.46624 -4.4770269 3.7986484 1900769
98.442291 -4.5269237 3.8615377 1245419
99.518761 -4.4718747 3.9249988 3867583
100.52858 -4.5785723 3.8714287 16711680
101.31667 -4.6833334 3.9500003 16711680
102.15 -4.75 3.55 65280
105.35001 -4.0499997 3.95 16711680
106.25001 -4.5999999 3.8499999 16711680
18.703335 -3.5566666 3.5366669 16711680
19.565792 -3.555263 3.5447369 16711680
20.432608 -3.5543482 3.4760873 16711680
21.489393 -3.5590918 3.5287881 14687744
22.46842 -3.6342111 3.4947364 14948864
23.363329 -3.6766675 3.5 16123904
24.477028 -3.6472981 3.5499995 16711680
25.475004 -3.6500003 3.4925003 15862784
26.501064 -3.6499994 3.5265954 16254464
27.501791 -3.6499987 3.4803576 16189184
28.627108 -3.7379498 3.5018075 14883328
39.758511 -3.8500009 3.5095747 16646144
40.499992 -3.8500035 3.5000002 16711680
41.51329 -3.8718796 3.5421872 16646144
42.518917 -3.8659704 3.5457988 16646144
43.51915 -3.8666711 3.4966669 16646144
44.386555 -3.8888094 3.4649248 16646144
45.486954 -3.9093974 3.4954541 16646144
46.489693 -3.9235337 3.4992647 16711680
47.4907 -3.9358447 3.4845128 16711680
48.495274 -3.9443429 3.4877355 16711680
49.500004 -3.9500029 3.5 16711680
50.383335 -3.9499998 3.4452381 16711680
51.800003 -3.3750002 3.1875 255
52.659088 -3.4681816 3.4590909 255
53.75 -3.51 3.8500001 255
87.688087 -3.545238 3.0595236 255
88.625023 -3.4750004 3.0977285 131324
89.472931 -3.4937494 3.1291676 327929
90.569656 -3.476229 3.2549183 786674
91.525276 -3.5342698 3.2926965 524534
92.539452 -3.5407901 3.4013162 721903
93.505981 -3.5260003 3.5313332 255
94.520866 -3.4861107 3.6499999 656368
95.556755 -3.490541 3.752703 65789
96.445168 -3.5112896 3.7774179 524534
97.497917 -3.5229168 3.7479167 655604
98.578583 -3.4442861 3.844285 196859
99.579041 -3.569355 3.8790312 1048814
100.41856 -3.4785717 3.9071419 5244839
101.41667 -3.6166668 3.9000001 8355584
102.15001 -3.45 3.75 8355584
104.75001 -3.5500002 3.55 65280
106.15 -3.5500002 3.75 16711680
51.841671 -2.4833336 3.1500001 5609
52.733337 -2.7333336 3.4499998 255
53.849998 -2.95 3.95 255
87.650009 -2.5062499 3.0499995 255
88.53891 -2.5077777 3.0788901 255
89.413757 -2.4655178 3.1258624 262394
90.475746 -2.5060608 3.2393947 255
91.505203 -2.4992535 3.2723885 255
92.452393 -2.4837348 3.3957839 1019
93.471451 -2.4928572 3.4988091 255
94.475372 -2.5073338 3.6006663 255
95.563568 -2.4837842 3.7162163 255
96.4963 -2.511111 3.7629623 255
97.512711 -2.4449148 3.7889826 255
98.595673 -2.4804351 3.8043489 722414
99.582359 -2.4970589 3.8882344 458999
100.43001 -2.5466671 3.9199991 2752724
101.30714 -2.5357144 3.9500003 7152749
103.35001 -2.3500001 3.75 65280
51.883331 -1.9166667 3.1166668 43605
52.407894 -1.4605266 3.2184207 3569
53.150002 -1.4166667 3.55 255
54.109997 -1.45 3.8500001 255
87.53125 -1.5187498 3.0499995 255
88.55188 -1.5028304 3.0801892 255
89.444626 -1.5071429 3.1321433 255
90.468536 -1.5055554 3.2370372 255
91.480751 -1.5128206 3.2935896 255
92.476715 -1.4883722 3.3709311 255
93.444283 -1.4814285 3.4871435 255
94.506966 -1.5018988 3.5677214 255
95.54686 -1.5023812 3.6690488 255
96.512527 -1.4833333 3.7270837 255
97.511993 -1.4936621 3.8302813 255
98.523689 -1.5105264 3.8184209 852209
99.483345 -1.4469699 3.8621204 460783
100.50927 -1.5129629 3.9351847 1182178
101.75 -1.6500001 3.95 255
44.549999 -0.050000001 3.1500001 65280
51.650002 -0.31 3.05 255
52.337502 -0.51875001 3.175 255
53.149998 -0.42272729 3.4772727 255
54.133331 -0.5 3.8500004 255
87.556244 -0.46250004 3.0499995 255
88.552116 -0.51808512 3.088299 254
89.451721 -0.4793103 3.1275868 255
90.465843 -0.51190484 3.2309527 255
91.503555 -0.53450704 3.3021119 255
92.517853 -0.52261901 3.3845248 255
93.47097 -0.52096772 3.4693558 255
94.48423 -0.51710528 3.5710514 255
95.52211 -0.4811475 3.6778691 254
96.513245 -0.51530606 3.7357132 255
97.481125 -0.49590161 3.8319659 254
98.549995 -0.54500002 3.8274999 786674
99.483337 -0.51060605 3.8863628 255
100.51429 -0.42857146 3.9500008 255
103.35001 -0.94999999 3.75 65280
43.450001 0.15000001 3.05 65280
44.349998 0.20714287 3.1214287 2415104
45.51667 0.25 3.1666667 11162880
46.487499 0.26249999 3.25 16711680
47.364285 0.27857146 3.3214288 16711680
48.331818 0.27727276 3.4136367 14165504
49.400002 0.25 3.4928577 16711680
50.411537 0.30384615 3.5807693 16711680
51.566669 0.37777779 3.4055555 9240689
52.413643 0.44545457 3.3636365 4136098
53.316666 0.39999998 3.6666665 7602314
54.326931 0.37692308 3.8884611 8653168
55.950001 0.25 3.95 16711680
56.049999 0.30000001 3.95 16711680
87.572723 0.51363641 3.0499997 255
88.588005 0.48199996 3.0900011 255
89.487328 0.48866659 3.1286676 255
90.443199 0.48898304 3.2347465 255
91.522003 0.46585366 3.2963417 393464
92.496933 0.49567893 3.3734584 255
93.502136 0.44014078 3.471127 255
94.514931 0.47857141 3.5668821 255
95.544861 0.48620689 3.6724141 255
96.503983 0.51799995 3.7379994 255
97.500008 0.49722221 3.8222215 255
98.534622 0.47307694 3.8294871 3569
99.466225 0.5094595 3.8959451 1784
100.49734 0.52894741 3.9447367 852209
43.799999 1.75 3.95 16711680
46.650002 1.7 3.05 16711680
47.379997 1.7700001 3.0799997 15862784
48.366665 1.7333333 3.1166666 16711680
49.589119 1.7065217 3.2195654 11815424
50.657143 1.642857 3.3357141 16058624
51.585995 1.5700002 3.2979999 9640273
52.392426 1.5560607 3.3166668 8062843
53.360355 1.5465516 3.5465519 7869808
54.326195 1.5214286 3.7833333 6357149
55.540913 1.5227274 3.7590911 16711680
56.58334 1.4766666 3.9233336 14492160
57.349995 1.4944445 3.9055557 16711680
87.555862 1.5323529 3.0499995 255
88.63369 1.505102 3.0908172 255
89.522217 1.4972224 3.1319449 255
90.473618 1.5227275 3.2427268 254
91.546349 1.5097558 3.3097558 254
92.524391 1.5073169 3.3780491 393464
93.485725 1.4928572 3.4771438 196859
94.496231 1.4912502 3.5824993 255
95.526955 1.4976923 3.6684611 1019
96.528259 1.4891303 3.7369568 327929
97.479187 1.4763888 3.825 255
98.539749 1.5320513 3.8423076 255
99.4842 1.5131578 3.8842094 1784
100.47 1.465 3.95 255
51.75 2.5250001 3.0499997 255
52.33572 2.4857144 3.1500001 255
53.142307 2.5115387 3.4884617 255
54.158333 2.5333335 3.8500001 255
87.550003 2.4566669 3.0499997 255
88.529671 2.5148144 3.083334 255
89.515671 2.4800003 3.1385715 255
90.482857 2.4953129 3.2343752 255
91.532486 2.5050008 3.3162506 255
92.515099 2.5030124 3.3849401 1019
93.507179 2.5257146 3.4642859 255
94.481636 2.4981012 3.5841761 196859
95.53788 2.5135133 3.67027 196859
96.52552 2.4642861 3.7438774 255
97.525009 2.4882357 3.835294 196859
98.593597 2.5141025 3.8474352 255
99.583328 2.4722223 3.8833325 2549
100.36428 2.5452383 3.9452376 255
51.662498 3.5249999 3.0499997 255
52.314293 3.4571428 3.1500001 255
53.157692 3.4961543 3.4807692 255
54.150002 3.5166669 3.8500001 255
86.5 3.5999999 3.05 32639
87.569351 3.614516 3.0596781 1245419
88.488373 3.4549999 3.0866675 393464
89.461319 3.4783022 3.1518872 2294998
90.521187 3.5348487 3.2712121 1377253
91.503494 3.4732563 3.3267457 852209
92.50219 3.5079706 3.4297099 1442789
93.502724 3.4864867 3.5175683 526063
94.495293 3.4968753 3.6078122 2033113
95.504265 3.5014284 3.6957135 1180649
96.484001 3.5119994 3.7520001 1314779
97.470566 3.491096 3.8691785 1248733
98.422234 3.3972225 3.8916659 3015629
99.475006 3.3083332 3.9250002 255
100.27001 3.1900001 3.95 255
101.65 3.1500001 3.6500001 16711680
103.45 3.3499999 3.95 16711680
105.65 3.3499999 3.6500001 16711680
106.65 3.3499999 3.75 16711680
52.257153 4.4428573 3.1500001 255
53.150002 4.4500008 3.4499996 255
54.150002 4.541667 3.8500001 255
81.688469 4.7346158 3.2346158 6177883
82.550003 4.6852946 3.3205886 10308374
83.616669 4.6666675 3.3833332 10183424
84.525993 4.6820006 3.5099995 12008714
85.575935 4.70926 3.6314819 12661513
86.640915 4.6704555 3.3977277 11010644
87.527641 4.6064711 3.3511765 10160728
88.479683 4.5351844 3.3672831 8720233
89.408409 4.573596 3.3466287 8981099
90.523994 4.4989991 3.3610013 6425489
91.508133 4.5209303 3.4034896 5245859
92.520897 4.4829125 3.4765818 5836438
93.503853 4.5282049 3.5782049 5245093
94.546364 4.5245447 3.6354542 6750359
95.48996 4.4942865 3.7442858 5115043
96.495834 4.5388894 3.8180568 7409024
97.519608 4.4696426 3.8821425 6952573
98.418015 4.4419999 3.9259994 4854943
99.300003 4.3700004 3.9000001 6684825
100.45 4.5500002 3.875 4177664
101.25001 4.2500005 3.95 16711680
102.15 4.5500002 3.55 16711680
103.60001 4.5 3.6500001 16711680
105.35001 4.7500005 3.6500001 16711680
106.65 4.7500005 3.75 16711680
51.850002 5.5357146 3.05 28049
52.299995 5.4750004 3.2750003 21930
53.349998 5.0750003 3.55 4128959
54.150002 5.1500001 3.95 255
81.598625 5.6662164 3.2067573 8137814
82.670677 5.6051726 3.3637924 7481189
83.49501 5.6200004 3.4399998 11675174
84.563515 5.7229733 3.5500007 11022373
85.669151 5.6455078 3.6646068 14162953
86.577171 5.5247564 3.5558243 11930428
87.547066 5.5074239 3.5321791 11470663
88.455254 5.4828949 3.6434207 13637909
89.463051 5.4833336 3.4949276 12586544
90.522224 5.4444437 3.3944442 10359373
91.541885 5.50946 3.3472965 9568364
92.470985 5.5370965 3.4322584 10488914
93.514656 5.5376921 3.5392296 8719213
94.53569 5.4908166 3.6153061 9502829
95.499977 5.5357137 3.6857138 8525159
96.473564 5.5235291 3.847059 8920153
97.453026 5.4651518 3.7742422 9850139
98.51001 5.52 3.7450001 9569894
99.566673 5.5750003 3.8083332 5576084
100.52334 5.5966678 3.8700004 6099344
101.37501 5.6000004 3.95 2039743
102.05 5.4500003 3.95 255
103.25001 5.5500002 3.95 65280
5.7937498 6.8499994 3.6875002 14622464
6.4660015 6.6360002 3.2640002 16319744
13.758334 6.8000007 3.2750001 16711680
14.509181 6.6295943 3.3928564 16646144
51.861118 6.4833331 3.1611111 255
52.696159 6.4423079 3.4346154 255
53.849998 6.5625005 3.8499999 255
81.563034 6.5086956 3.2782609 11541298
82.473083 6.4153857 3.3807685 6116174
83.581238 6.4593754 3.4906251 9903943
84.541489 6.4734035 3.6053195 10296134
85.630348 6.5326762 3.7374017 13698599
86.51667 6.5079708 3.736958 14353183
87.508545 6.4414277 3.7657149 14748178
88.420959 6.3758059 3.7080641 16711680
89.477264 6.3909097 3.1999998 14417954
90.45002 6.500001 3.2428575 13107254
91.531822 6.409091 3.3727272 9437294
92.575005 6.4099998 3.4499996 10030169
93.479172 6.4333344 3.5291667 10747994
94.449997 6.523334 3.5966668 11075668
95.438004 6.5419998 3.6859996 7995524
96.572731 6.3727279 3.7863636 11015999
97.432343 6.5558829 3.8205881 8789593
98.431267 6.6625009 3.8812499 6768463
99.43 6.6900001 3.95 5006924
100.425 6.7000003 3.95 4128959
2.75 7.9500003 3.05 16711680
3.4326665 7.6660018 3.4659994 14557184
4.25 7.9000006 3.95 16711680
5.6448555 7.5500011 3.55147 15797504
6.3678074 7.6623292 3.2719176 16450304
7.0500002 7.9500003 3.05 16711680
12.833334 7.7333336 3.7166667 16711680
13.622502 7.6150017 3.2975004 16711680
14.381871 7.5243754 3.5456245 16254464
15.165909 7.7977276 3.3568187 16711680
51.900005 7.500001 3.1500001 255
52.799999 7.4500008 3.45 255
53.887505 7.4125004 3.8250003 255
54.049999 7.75 3.95 255
81.629532 7.5750008 3.2886364 4996978
82.450012 7.5541677 3.4208331 999343
83.518005 7.4260001 3.5100002 2624203
84.312988 7.438889 3.5537045 4915379
85.695511 7.4994955 3.768182 15532049
88.850006 7.6500001 3.05 16711680
89.950005 7.0500002 3.05 16711680
91.583344 7.0833335 3.2166667 255
92.550003 7.0500002 3.3499999 16711680
1.75 8.9500008 3.1500001 16711680
2.4166667 8.25 3.9500003 16711680
3.6516945 8.346611 3.4008479 16711680
4.1687503 8.4250002 3.7562501 15666944
5.7642865 8.4071436 3.6357145 14296064
6.5241933 8.2193499 3.5596771 16711680
7.3659983 8.1379957 3.3979998 16711680
11.892858 8.4214287 3.0642858 16711680
12.628787 8.4106073 3.3530307 16319744
13.478711 8.3222742 3.35495 16254464
14.425295 8.2076464 3.3923528 16058624
15.327587 8.6086206 3.2982762 15993344
16.427776 8.8166666 3.6444447 12990464
17.049999 8.9000006 3.05 16711680
51.783337 8.5166674 3.1500001 255
52.850002 8.4250002 3.3625002 255
53.5 8.5750008 3.5999999 255
54.100002 8.5666676 3.8833337 255
66.350006 8.9500008 3.95 16711680
81.492104 8.5263176 3.2605262 6357149
82.645645 8.5130444 3.447825 1529
83.2985 8.522728 3.4772727 1966304
84.75 8.7000008 3.5999997 8323199
85.685379 8.4863625 3.7590899 16187399
88.850006 8.25 3.05 16711680
0.92500001 9.375 3.075 16711680
1.4571431 9.5464287 3.1535718 13969408
2.1500001 9.75 3.1500001 16711680
3.4205878 9.5558825 3.3911765 15732480
4.5966673 9.6633339 3.5300002 12272640
5.5 9.7250013 3.5458336 15275264
6.5316324 9.6867352 3.5765302 16711680
7.0500007 9.6833334 3.6833334 16711680
11.783333 9.8833342 3.9333334 5614080
12.552128 9.7372332 3.4797866 16123904
13.748363 9.5631132 3.564755 16646144
14.531963 9.509841 3.5032785 16319744
15.524417 9.5651159 3.5313954 15536384
16.341669 9.3600016 3.623333 15275264
17.506306 9.6752453 3.2771847 16319744
18.171051 9.907896 3.1394737 16711680
51.900002 9.6500006 3.05 255
52.861115 9.5277777 3.3611114 255
54.116669 9.3833342 3.8833337 2752724
62.330097 9.3975182 3.5494485 16711680
63.503445 9.3054447 3.4995053 16646144
64.394516 9.5354109 3.5383205 16646144
65.585869 9.629859 3.5067163 16646144
66.499962 9.75 3.4999995 16711680
67.494896 9.6807156 3.4830706 16646144
68.499992 9.6500092 3.5000002 16711680
69.428467 9.6901913 3.4724298 16646144
75.903763 9.7365685 3.517164 16450304
76.488876 9.6388979 3.5194442 16450304
77.490891 9.6372814 3.518182 16254464
78.523422 9.6125107 3.5265622 16319488
79.516899 9.6256008 3.5476377 16319744
80.498947 9.6125994 3.5600722 16450304
81.49324 9.5514927 3.3559701 8522609
82.41584 9.4402456 3.437804 2033369
83.480293 9.5287886 3.4803035 1966304
84.542862 9.5714302 3.6071441 2359514
85.715469 9.5309105 3.7318184 16121864
2.2166667 10.275001 3.1500001 15993344
3.4142854 10.428573 3.3857145 15471104
4.6142864 10.550001 3.4857142 16711680
5.5500002 10.337753 3.3704085 15340544
6.5894399 10.433098 3.3133807 16711680
7.4065204 10.53261 3.3326089 16515584
8.083334 10.816668 3.05 16711680
10.950001 10.25 3.95 16711680
11.598935 10.415956 3.6946802 14883584
12.590545 10.429729 3.5797298 15014144
13.564133 10.36739 3.4391305 16711680
14.670004 10.535714 3.5757139 16450304
15.513359 10.434734 3.5500004 16646144
16.33617 10.688297 3.5765958 15797504
17.773809 10.12143 3.507143 16711680
18.262501 10.056252 3.2624998 16711680
51.783337 10.450001 3.05 255
52.783337 10.53889 3.3388891 255
61.704533 10.673375 3.553896 16711680
62.316124 10.521287 3.5166664 16711680
63.459209 10.620111 3.6155174 16515584
64.487038 10.55 3.8611107 16711680
65.444733 10.550001 3.8973682 16711680
66.410004 10.530001 3.9500005 16123904
69.594154 10.482632 3.4678953 16580864
75.836472 10.564281 3.5092852 16450304
76.707695 10.95 3.523077 16711680
77.543571 10.950007 3.5256407 16711680
78.448196 10.934683 3.510361 16711680
79.497421 10.950006 3.5036082 16384004
80.313622 10.950006 3.5045455 15467789
81.285728 10.487142 3.5100009 12454453
82.546165 10.442308 3.4269226 590069
83.573906 10.573914 3.5391316 1048814
84.461784 10.491177 3.6049018 3080399
85.655632 10.471496 3.7574773 13042994
2.4250002 11.125 3.4000001 16711680
3.8999999 11.150001 3.625 16711680
4.1000004 11.15 3.75 16711680
5.6500006 11.2 3.8500001 16711680
6.1500001 11.330001 3.7899997 16711680
11.616668 11.254168 3.2125003 15993344
12.283334 11.127779 3.2611113 16711680
13.592105 11.328948 3.1342103 15014144
14.791669 11.425002 3.5888889 16189184
15.511836 11.536841 3.5328944 16711680
16.552433 11.518293 3.6524384 15797504
17.381428 11.332857 3.4985709 13773824
52.721432 11.521429 3.2928574 255
61.650864 11.494036 3.5371566 16646144
62.214302 11.474029 3.4531002 16711680
63.603333 11.133333 3.2950001 16711680
64.515793 11.150007 3.3894737 16580864
65.485527 11.182714 3.430373 16646144
66.555641 11.233964 3.5018866 16711680
67.454437 11.148226 3.4741068 16646144
68.513748 11.146089 3.4901965 16711680
69.340584 11.479705 3.4866335 16646144
75.691582 11.44178 3.5209959 16646144
76.489792 11.049993 3.5134411 16711680
77.447327 11.049993 3.5420003 16385024
78.377274 11.050002 3.5772731 16711680
80.617844 11.466073 3.5767856 15925769
81.248184 11.468181 3.5736361 13052173
82.530006 11.52 3.453999 1310954
83.475006 11.469232 3.5384629 2359514
84.471207 11.45303 3.6106071 6037123
85.488029 11.500632 3.7550638 7608943
86.243347 11.603334 3.7500002 4989584
87.250008 11.85 3.75 16711680
11.91 12.55 3.23 12206848
12.27857 12.592859 3.2571433 11945984
13.85 12.400001 3.5 8355584
14.710873 12.484782 3.5326085 16711680
15.458997 12.446635 3.5061803 16515584
16.519449 12.516666 3.5763888 16711680
17.508978 12.643586 3.7 16450304
18.159092 12.777272 3.8772731 16711680
52.635719 12.435716 3.2357147 255
61.671387 12.484694 3.511225 16646144
62.167397 12.500454 3.5013759 16646144
69.325737 12.366667 3.4962113 16580864
70.499977 12.049994 3.4644442 16711680
71.506027 12.049995 3.4752748 16711680
72.503204 12.049996 3.4765952 16646144
73.510033 12.049998 3.5089476 16711680
74.500015 12.05 3.4999995 16711680
75.465973 12.297171 3.4948866 16646144
80.629143 12.481247 3.6083333 16515584
81.312019 12.529999 3.556 12193843
82.523926 12.595652 3.4586945 1048814
83.504578 12.58788 3.5378799 196859
84.471733 12.516666 3.6268108 786674
85.451393 12.475 3.7319443 3749519
86.411552 12.546154 3.7807689 1250263
87.129997 12.43 3.8900001 255
88.550003 12.55 3.95 65280
13.950001 13.35 3.05 16711680
14.7125 13.287499 3.7499998 16711680
15.5 13.433333 3.633333 16711680
16.330523 13.466883 3.5305195 16580864
17.278572 13.650001 3.7500002 16711680
52.550007 13.478573 3.2642856 255
61.698757 13.481706 3.467073 16646144
62.171329 13.505553 3.501282 16711680
69.429985 13.434554 3.4190903 16646144
70.552414 13.525399 3.4738097 16711680
71.472374 13.489547 3.4216409 16711680
72.471603 13.457838 3.4705877 16711680
73.500519 13.449996 3.4963913 16646144
74.494652 13.449998 3.5074465 16646144
75.343742 13.331253 3.4962506 16711680
80.644852 13.501282 3.6012816 16711680
81.219727 13.495456 3.5257573 15925259
82.646149 13.496154 3.4692309 928964
83.556229 13.422918 3.5437508 655604
84.454445 13.458891 3.6188889 2231249
85.537498 13.483334 3.7125003 1390004
86.537506 13.566669 3.8041663 2755273
87.423347 13.603334 3.8699999 1118685
88.321442 13.507144 3.9071434 7749448
13.550001 14.25 3.1500001 16711680
14.700001 14.700001 3.8000002 16711680
15.897371 14.58158 3.5447369 16711680
16.51923 14.373078 3.1423073 16711680
17.466667 14.533335 3.1833339 16711680
52.433334 14.5 3.1500003 255
61.692127 14.489758 3.4728911 16646144
62.1833 14.510358 3.5004506 16711680
80.649994 14.531251 3.5749998 16711680
81.361122 14.42222 3.3944447 10948169
82.50592 14.468645 3.4449146 262394
83.455658 14.512265 3.5405669 255
84.525558 14.525557 3.6388891 255
85.427147 14.552858 3.7242858 3824
86.437515 14.470835 3.8166664 10964
87.534996 14.474998 3.8849995 8329574
88.255569 14.477777 3.9388895 7405709
13.883334 15.383334 3.75 16711680
14.1 15.5 3.5999999 16711680
15.886367 15.313638 3.2954543 16711680
52.25 15.05 3.05 255
61.709442 15.495944 3.4905405 16711680
62.184891 15.500006 3.5047171 16711680
80.676941 15.507693 3.5000002 16711680
81.382362 15.417644 3.4794111 14747414
82.51088 15.4 3.4586952 2490584
83.467026 15.481917 3.5393617 524534
84.527786 15.433334 3.6555567 458999
85.424194 15.346773 3.7370968 2099413
86.414284 15.385715 3.8214285 1179884
87.496429 15.489286 3.8928568 7733384
88.313644 15.549999 3.9227276 9109619
52.150002 16.15 3.05 16711680
61.715733 16.485615 3.5239735 16711680
62.180454 16.511904 3.5252388 16711680
80.684792 16.489132 3.5282609 16711680
81.425621 16.542685 3.4573169 10551389
82.480019 16.6 3.4566662 2761394
83.498276 16.574137 3.5534487 9179
84.430779 16.453848 3.63077 255
85.435722 16.571426 3.7285719 3539144
86.497063 16.744118 3.8264699 7798918
87.500015 16.5625 3.8916662 12126778
88.170013 16.590002 3.9433339 11665484
96.050003 16.15 3.1500001 16711680
98.550003 16.75 3.3499999 16711680
99.750008 16.549999 3.45 16711680
101.05 16.35 3.55 16711680
61.717587 17.523243 3.5316899 16711680
62.19252 17.505314 3.5010638 16646144
80.697838 17.45435 3.4586959 15925259
81.280319 17.501516 3.4530303 10624573
82.524071 17.361107 3.4648147 1182178
83.482147 17.296427 3.5392859 255
84.530006 17.532858 3.6471441 3997889
85.567009 17.486168 3.7585101 6684824
86.479408 17.273529 3.8676467 11731018
87.431824 17.25 3.9045453 9109619
88.116669 17.183334 3.9500003 11141205
96.150002 17.549999 3.25 16711680
97.250008 17.049999 3.25 16711680
99.650002 17.949999 3.6500001 16711680
100.95 17.75 3.75 16711680
101.85001 17.949999 3.95 65280
102.15 17.549999 3.8499999 65280
103.95 17.15 3.55 16711680
22.532015 18.851109 3.499438 16711680
23.50914 18.868263 3.5048389 16711680
24.51494 18.856167 3.5180409 16646144
25.520468 18.84046 3.5042853 16711680
26.4986 18.811665 3.5219631 16646144
27.505552 18.738873 3.5203707 16711680
28.474297 18.72101 3.5172908 16646144
29.522163 18.668541 3.5036089 16646144
30.535856 18.610592 3.4904037 16711680
31.508871 18.524185 3.4887097 16711680
32.500275 18.36244 3.5029719 16711680
33.483925 18.318966 3.5143671 16711680
34.481613 18.306131 3.5216131 16711680
35.488979 18.32206 3.5227947 16711680
36.564621 18.343075 3.4507694 16646144
37.485592 18.339832 3.7144072 16711680
38.48262 18.38261 3.7630441 16711680
39.450001 18.303848 3.8192306 16711680
40.64677 18.444675 3.5351064 16646144
41.499069 18.333006 3.5226414 16711680
42.50808 18.340462 3.528096 16711680
43.496574 18.414644 3.5249996 16711680
44.520824 18.383627 3.5261064 16711680
45.506138 18.25 3.5000002 16711680
46.499992 18.25 3.5000002 16711680
47.500004 18.25 3.4999995 16711680
48.504566 18.25 3.4974754 16711680
49.500008 18.25 3.5 16711680
50.49646 18.25 3.499495 16711680
51.500507 18.25 3.4954541 16711680
52.502522 18.25 3.5045457 16711680
53.502495 18.25495 3.4995053 16711680
54.500008 18.25 3.5000002 16711680
55.498451 18.248968 3.5077314 16646144
56.112873 18.46143 3.5042858 16711680
60.684334 18.626116 3.5335817 13512448
61.722458 18.554352 3.5572457 16450304
62.202438 18.478046 3.5256085 16646144
80.736671 18.523333 3.4566667 12259635
81.49231 18.457691 3.4538462 8328043
82.518417 18.571051 3.4473681 255
83.472214 18.472223 3.564815 255
84.507149 18.502384 3.6880958 255
85.556671 18.523335 3.78 3342540
86.670006 18.35 3.8500001 16711680
87.462494 18.325001 3.9250004 16711680
93.850006 18.85 3.05 16711680
96.850006 18.85 3.45 16711680
97.400002 18.699999 3.3499999 16711680
98.483337 18.483334 3.5166669 16711680
99.400009 18.549999 3.5500002 16711680
100.45 18.416668 3.6500001 16711680
101.45 18.57 3.5300004 10053120
102.38335 18.516666 3.6833332 5614080
103.2 18.5 3.7 65280
22.09 19.539999 3.5799999 16711680
23.65 19.25 3.8499999 16711680
36.950001 19.531818 3.2287879 15928064
37.299999 19.493752 3.2874999 16711680
38.75 19.4 3.6299999 16711680
39.48 19.469999 3.6900003 16711680
40.633053 19.490679 3.3957629 16515584
41.849998 19.949999 3.6500001 16711680
42.585003 19.950003 3.6700001 16711680
43.582722 19.848181 3.6263626 16646144
44.480495 19.936571 3.4207308 16646144
45.511349 19.949991 3.3966665 16711680
46.506413 19.949989 3.4384618 16711680
47.507145 19.949986 3.4738097 16711680
48.508354 19.949982 3.4916663 16711680
49.528378 19.933762 3.4995496 16711680
50.503387 19.900005 3.5040541 16711680
51.484219 19.864403 3.5004504 16711680
52.500999 19.851984 3.5020001 16711680
53.498955 19.846859 3.4979169 16711680
54.499474 19.849983 3.4994733 16711680
55.39584 19.852762 3.4916663 16711680
56.150013 19.522223 3.561111 16711680
61.753216 19.529034 3.5387094 16711680
62.240742 19.537693 3.4961538 16711680
80.730003 19.57 3.48 8329573
81.54583 19.70417 3.4166665 10095194
82.436958 19.415216 3.5065215 4325564
83.450005 19.244736 3.55 852209
84.462502 19.456249 3.6187503 983279
85.507149 19.554762 3.7976191 2755784
96.583344 19.416668 3.1833334 11162880
97.150002 19.65 3.1500001 16711680
101.05 19.75 3.6500001 16711680
102.05 19.049999 3.45 16711680
104.35001 19.75 3.6833334 11162880
20.799999 20.799999 3.8 16711680
21.808825 20.826471 3.5382354 16711680
22.453127 20.765619 3.484375 15928064
23.413826 20.78404 3.4053192 16646144
24.462496 20.753124 3.346875 16711680
25.523472 20.752039 3.4051018 16711680
26.49423 20.763462 3.4288461 16711680
27.536201 20.765518 3.4810345 16711680
28.505558 20.773808 3.518255 16711680
29.529726 20.754051 3.5459456 16711680
30.49683 20.725954 3.5335448 16711680
31.488293 20.515959 3.5606377 16646144
32.502632 20.242107 3.4789474 16711680
33.518005 20.22867 3.4686666 16711680
34.618465 20.286938 3.4905405 16711680
35.519878 20.486151 3.452409 16646144
36.614086 20.487869 3.42767 16711680
37.493027 20.473267 3.5116282 16711680
38.460938 20.367195 3.5515628 16580864
39.513081 20.31155 3.6023071 16450304
40.579395 20.259804 3.4781044 16711680
41.490204 20.099504 3.496392 16646144
42.482693 20.099058 3.475961 16711680
43.403008 20.206635 3.3825293 16646144
44.299999 20.387501 3.5249999 14622464
45.150002 20.049999 3.55 16711680
55.736362 20.472729 3.4954548 16711680
56.144455 20.544445 3.5555556 16711680
60.291275 20.142067 3.4896832 10640384
61.752499 20.479996 3.5674996 16711680
62.168163 20.515154 3.5272725 16711680
80.770012 20.290001 3.3700001 10027110
81.505562 20.466669 3.4666667 6495359
82.496147 20.450001 3.4346147 590069
83.47084 20.625 3.5250006 255
84.536964 20.689129 3.6369574 1442024
85.450012 20.461109 3.7685184 5837458
86.125 20.549999 3.925 255
96.050003 20.65 3.1500001 16711680
97.450005 20.25 3.25 8355584
98.350006 20.949999 3.45 16711680
99.550003 20.65 3.6500001 16711680
100.65001 20.699999 3.75 16711680
101.95 20.25 3.8499999 16711680
106.25001 20.65 3.95 65280
20.483334 21.950001 3.4833333 15275264
21.395456 21.949999 3.5954549 16711680
22.416668 21.333334 3.6833332 13904384
23.516665 21.194445 3.7129626 16711680
24.41 21.174997 3.7649999 16711680
25.419233 21.157692 3.8115389 16711680
26.607141 21.150002 3.7357147 16711680
27.549999 21.15 3.8000002 16711680
28.475 21.15 3.4749999 16711680
29.450001 21.121429 3.1785719 16711680
30.507143 21.107143 3.1785715 16711680
31.049999 21.099998 3.25 16711680
34.799999 21.049999 3.95 16711680
35.599998 21.049999 3.95 16711680
36.82143 21.192856 3.3357146 16711680
37.52058 21.420593 3.2715695 16711680
38.482559 21.387215 3.3244188 16711680
39.515221 21.447834 3.3695657 16319744
40.406258 21.43959 3.3416672 16711680
41.049999 21.449999 3.3499999 16711680
43.82143 21.500002 3.4571428 10118144
44.188461 21.465384 3.4961541 8355584
55.745003 21.465002 3.5250003 16711680
56.671944 21.793896 3.5182929 16646144
57.512676 21.872654 3.5420001 15797504
58.090004 21.863337 3.4233334 16711680
61.785709 21.447618 3.4785717 16711680
62.18095 21.449997 3.4880278 16711680
80.800003 21.358334 3.416667 5570730
81.200005 21.383335 3.5833335 13904384
83.75 21.625 3.625 4128959
84.550003 21.41 3.6550004 4983973
85.546158 21.484615 3.7538466 8983394
90.450005 21.35 3.05 16711680
94.450005 21.549999 3.05 16711680
95.550003 21.6 3.25 16711680
96.650002 21.65 3.45 16711680
99.150002 21.5 3.7 16711680
100.05 21.949999 3.95 16711680
101.85001 21.549999 3.8499999 16711680
104.55 21.15 3.95 65280
19.949999 22.5 3.8 8355584
20.446552 22.084482 3.5413797 12729344
21.443335 22.059998 3.5666671 16123904
22.049999 22.049999 3.55 16711680
38.607143 22.564287 3.1071429 16711680
39.150002 22.35 3.1500001 65280
43.616669 22.450001 3.0833335 11162880
44.049999 22.5 3.05 65280
55.75 22.512499 3.4500003 16711680
56.150002 22.630001 3.4300001 16711680
58.150002 22.299999 3.5 16711680
60.762001 22.858002 3.4579997 16711680
61.791927 22.475801 3.5919359 16711680
62.185905 22.398716 3.5320508 16711680
80.861115 22.505556 3.438889 5585009
81.295471 22.568182 3.6590915 9115484
82.800003 22.849998 3.55 255
83.507141 22.407143 3.6071429 255
84.587502 22.6875 3.6999998 255
85.480003 22.594999 3.7450001 2493644
90.950005 22.15 3.05 16711680
93.850006 22.85 3.25 16711680
94.150009 22.5 3.0999999 16711680
95.75 22.716665 3.3166666 11141205
96.800003 22.549999 3.3499999 8323199
97.300003 22.5 3.5999999 16711680
98.675003 22.625 3.6749997 16711680
99.750008 22.49 3.6500001 10040115
100.25 22.549999 3.4000001 8355584
101.60001 22.449999 3.55 8355584
102.85001 22.949999 3.45 16711680
103.45 22.549999 3.45 16711680
106.25001 22.75 3.75 16711680
107.65 22.85 3.8499999 16711680
19.949999 23.25 3.75 16711680
20.050001 23.450001 3.3900001 16711680
37.549999 23.25 3.05 16711680
38.525002 23.174999 3.075 16711680
39.549999 23.25 3.3499999 16711680
43.761116 23.149998 3.1722224 13708288
44.116669 23.116667 3.3166671 11162880
55.75 23.399998 3.55 16711680
56.553997 23.487995 3.474 15601920
57.43597 23.458769 3.4885969 14361344
60.577267 23.159092 3.4409094 16711680
61.81469 23.444118 3.5117655 16711680
62.181831 23.413635 3.5318182 16711680
80.887512 23.549999 3.5 6242143
81.436676 23.496668 3.5100005 4980914
82.470016 23.703333 3.4566662 1114350
83.510025 23.583334 3.6166668 255
84.43824 23.42647 3.6911767 255
85.510002 23.450001 3.8099999 255
92.050003 23.25 3.05 16711680
93.650002 23.75 3.05 16711680
94.950005 23.5 3.25 8323199
95.450005 23.4 3.25 255
96.450005 23.550001 3.5166664 16711680
97.650002 23.35 3.6299999 16711680
98.483337 23.616667 3.7166667 5570730
99.25 23.4 3.4000001 32639
100.65 23.85 3.8499999 16711680
104.35001 23.15 3.6500001 16711680
105.5 23.6 3.8499999 16711680
106.25001 23.65 3.95 16711680
19.949999 24.450001 3.8499999 16711680
20.09 24.389999 3.3900001 16711680
55.790005 24.49 3.6099999 16711680
56.150002 24.6 3.6500001 16711680
57.75 24.049999 3.55 16711680
60.383339 24.420835 3.5375001 16711680
61.830761 24.49231 3.5500004 16711680
62.150002 24.421429 3.6785712 16711680
78.125008 24.581247 3.425 14622464
