# .PCD v0.7 - Point Cloud Data file format
VERSION 0.7
FIELDS x y z
SIZE 4 4 4
TYPE F F F
COUNT 1 1 1
WIDTH 1675
HEIGHT 1
VIEWPOINT 0 0 0 1 0 0 0
POINTS 1675
DATA ascii
22.626482 6.7620363 2.6505554
30.181665 6.7616668 2.605
30.255909 6.7504549 2.6068182
30.35 6.743125 2.6106248
30.451248 6.7318754 2.6206253
30.559475 6.7750001 2.649615
30.639282 6.7737298 2.6573811
30.751221 6.7504058 2.6609457
30.847141 6.748929 2.6728573
30.955006 6.7580004 2.6830001
31.042145 6.7769041 2.6878572
31.132502 6.7574997 2.6849999
31.232502 6.75 2.6949999
11.761 6.8690009 2.6615
11.828334 6.873889 2.6494441
12.295 6.8650002 2.605
12.368334 6.8650007 2.6116667
12.465001 6.8650002 2.6100001
12.563573 6.8650002 2.6464286
12.651001 6.8670006 2.6669998
15.977002 6.8629999 2.651
16.052143 6.8664293 2.6464286
20.578333 6.8416681 2.6283333
20.665001 6.8450003 2.6270003
20.755001 6.8370008 2.631
22.632301 6.8467317 2.6546159
28.152203 6.8795915 2.6712286
28.248882 6.873704 2.677037
28.346548 6.8742309 2.6819234
28.446499 6.875001 2.6890004
28.53833 6.875001 2.6916668
28.629999 6.875001 2.6949999
29.170929 6.8772345 2.6502423
29.251003 6.8795562 2.6523213
29.349049 6.8823118 2.6532688
29.454569 6.8800468 2.6538033
29.54624 6.8808799 2.6527097
29.651836 6.8820686 2.6543984
29.750574 6.8808417 2.6538963
29.848293 6.8704309 2.6538737
29.952068 6.8712683 2.6556349
30.049948 6.8696566 2.6520991
30.142609 6.8661056 2.650043
30.256632 6.8586144 2.6450951
30.345608 6.8567481 2.645515
30.454731 6.8549013 2.6495719
30.528767 6.8401947 2.6614933
30.667507 6.8567505 2.67275
30.738667 6.8516679 2.679667
30.855001 6.8313165 2.6797369
30.938745 6.8520827 2.6883335
31.088337 6.8350005 2.6950002
31.126114 6.8316674 2.6949999
11.75773 6.9931822 2.6613638
11.853262 6.9358711 2.6741304
11.947779 6.9172235 2.6611114
12.045436 6.914567 2.6663043
12.149801 6.910202 2.6634002
12.260263 6.9118433 2.6702635
12.350716 6.9107146 2.6764288
12.453001 6.9110003 2.6670003
12.577223 6.9761124 2.6650002
12.645834 6.9800005 2.666667
15.952929 6.9515524 2.6646552
16.055 6.9450006 2.6489999
16.115002 6.9450006 2.605
21.755001 6.9650002 2.645
22.635895 6.9499259 2.6490295
28.144238 6.9613218 2.6528473
28.251944 6.9752784 2.635695
28.352203 6.9749999 2.6417072
28.452677 6.9761667 2.6432528
28.549097 6.9787025 2.6433458
28.649067 6.9805222 2.6450803
28.750278 6.980278 2.646024
28.850199 6.9732628 2.6525204
28.952902 6.973063 2.6513708
29.047176 6.9737892 2.6532257
29.159937 6.9492965 2.6498437
30.174999 6.9250002 2.6458335
30.215 6.9550004 2.625
11.4575 7.0825005 2.6325002
11.510001 7.0800004 2.6299999
11.858748 7.0137496 2.6599998
11.951155 7.021924 2.6580768
12.051111 7.0305557 2.6383333
12.150789 7.0323677 2.6418421
12.248333 7.0307136 2.6473811
12.350237 7.0283332 2.6588097
12.449737 7.0265794 2.6628947
12.528001 7.0250006 2.6679997
12.680001 7.0266671 2.6349998
12.725 7.0750017 2.6350002
12.84125 7.0749998 2.6399999
12.945002 7.0761118 2.646111
15.895001 7.0650001 2.665
15.924413 7.0508828 2.6573529
21.635 7.0250006 2.605
21.755001 7.0450006 2.635
22.63596 7.0500002 2.6536539
28.136227 7.0504427 2.6490133
29.084314 7.04638 2.6632762
29.158871 7.0382257 2.6562905
11.575 7.1250014 2.6183333
11.655001 7.125001 2.6199996
11.73 7.125001 2.6200001
12.665 7.1050005 2.675
12.775001 7.1150002 2.6849999
12.835001 7.1500001 2.6900001
12.964285 7.1807151 2.6335714
13.005 7.1570001 2.6370001
15.894091 7.1468191 2.6477275
15.916054 7.1197371 2.6534209
22.637072 7.1492844 2.6544805
28.137369 7.1492643 2.6473777
29.085913 7.1404557 2.6622729
29.158747 7.1437507 2.6583333
30.204998 7.1050005 2.605
11.395 7.2150002 2.655
11.447729 7.2095451 2.6377273
11.533571 7.2235718 2.6421428
11.661668 7.2450004 2.605
11.705 7.2450004 2.605
12.667857 7.2350006 2.6407144
12.772501 7.2325006 2.6475
12.831668 7.228334 2.625
12.995001 7.243001 2.6569998
13.006999 7.257 2.6530004
15.895001 7.2050004 2.655
15.9375 7.2725005 2.6375
19.741667 7.2550011 2.625
21.625 7.2733335 2.6900001
21.820002 7.2550001 2.605
22.061668 7.2550001 2.675
22.157001 7.2550001 2.665
22.249002 7.2540002 2.648
22.343424 7.248683 2.6407895
22.45167 7.2501845 2.646111
22.547649 7.2461739 2.6491172
22.632504 7.230999 2.6504998
28.138346 7.2488823 2.6479497
29.087856 7.2350006 2.6435716
29.160381 7.2396164 2.6557691
30.185001 7.2250009 2.605
12.989286 7.3678575 2.6407142
13.005002 7.3416672 2.6716666
15.939 7.3690004 2.6429999
21.62962 7.3611541 2.6773076
28.139324 7.3499236 2.6497827
29.085003 7.3283339 2.6483333
29.161249 7.3400002 2.6525002
11.43 7.4650011 2.6849999
12.982501 7.4775009 2.6249998
13.005 7.4666672 2.6283333
15.941429 7.4678574 2.6435716
19.735001 7.4250007 2.675
21.630316 7.4525003 2.6599996
28.139917 7.4499273 2.6503623
29.091669 7.4383345 2.6216664
29.161667 7.4216666 2.6616666
11.425001 7.5150003 2.6949999
12.975001 7.5478578 2.632143
13.005002 7.5550013 2.6358333
15.93881 7.5492849 2.6502385
21.629093 7.5518188 2.6563635
28.140783 7.5497179 2.6518309
29.088337 7.5583344 2.665
29.1625 7.5550003 2.6400001
12.980557 7.6605558 2.6416667
13.005771 7.6496162 2.6503849
15.93262 7.6659536 2.6526194
19.355001 7.6300001 2.605
19.745001 7.6350007 2.605
21.627779 7.6544447 2.6672225
26.150457 7.6886353 2.6559091
26.230556 7.6938896 2.6461112
28.142008 7.6511393 2.6521032
28.694998 7.6950006 2.675
28.794998 7.6950006 2.625
28.831669 7.6950006 2.6616666
28.937496 7.6950006 2.6500001
29.064999 7.6883345 2.6416669
30.174999 7.6050005 2.675
11.455001 7.7450004 2.615
12.981668 7.7483339 2.6550002
13.005002 7.7566671 2.6433332
15.895001 7.7600007 2.6900001
15.930517 7.7453437 2.65569
19.365002 7.7050004 2.605
21.630835 7.7591677 2.6616666
22.34 7.7900009 2.6200001
22.457003 7.7870011 2.651
22.5555 7.7899995 2.6495001
22.645498 7.7904992 2.6474996
22.75182 7.7886353 2.6445451
26.067144 7.7214293 2.622143
26.15976 7.7272491 2.6463752
26.230494 7.7540979 2.6375568
28.168331 7.7050004 2.6516669
28.245596 7.7049952 2.6505947
28.345287 7.7050028 2.6564293
28.44804 7.7050018 2.6471741
28.549999 7.7049994 2.6350002
28.634998 7.7050004 2.6416669
29.172501 7.7183332 2.6399999
29.494999 7.7050004 2.675
29.820002 7.7150002 2.6399999
30.215 7.7250009 2.6849999
30.844997 7.7950006 2.655
30.975 7.7750001 2.665
31.054998 7.7700005 2.6700001
31.154999 7.7450004 2.665
31.236668 7.7433343 2.6766667
31.362499 7.7525001 2.6849999
31.414999 7.7250009 2.675
31.571667 7.7483339 2.6916668
12.972501 7.8537507 2.6474998
13.005002 7.8583336 2.6558332
15.895001 7.8175001 2.6675
15.935 7.8400002 2.605
16.995001 7.8950005 2.665
17.005001 7.8675003 2.6574998
19.758335 7.8727789 2.6394444
21.631847 7.8560534 2.6550004
22.195002 7.8050003 2.615
22.465 7.8050003 2.655
22.558336 7.8350005 2.6383331
22.65 7.8050003 2.6299999
22.79236 7.8526473 2.6358824
22.805002 7.8235717 2.6235714
23.93664 7.8577871 2.6569667
24.051495 7.8430009 2.6515002
24.163462 7.8346152 2.6488461
24.248714 7.8347144 2.6418569
24.3545 7.8322515 2.6352499
24.446253 7.831502 2.6385005
24.550322 7.8309569 2.6435111
24.650467 7.8310404 2.6459439
24.752922 7.8287764 2.6461325
24.85898 7.8500528 2.6494079
26.174322 7.8400025 2.645227
26.227295 7.8231254 2.6302085
28.155502 7.8349199 2.6494153
28.244503 7.8063917 2.6482005
28.346348 7.8050041 2.6476924
28.448635 7.8050017 2.647727
28.538635 7.8049994 2.6531816
28.646999 7.8049994 2.6550002
28.74 7.8050003 2.6483335
28.858999 7.8050003 2.645
28.965 7.8050003 2.6399999
29.049 7.8110008 2.6489999
30.794998 7.8850007 2.655
30.84 7.8450003 2.6399999
30.939999 7.8600006 2.6500001
31.029999 7.8499999 2.665
31.145 7.8500009 2.665
31.254999 7.8350005 2.675
31.35 7.8800001 2.6900001
31.494999 7.8250008 2.6949999
11.445 7.9600005 2.6200001
12.963573 7.9207144 2.6650002
13.005911 7.9449997 2.6477275
15.935 7.9850006 2.655
16.995001 7.9350004 2.6716666
17.005001 7.9575005 2.6412501
19.75881 7.9540482 2.6411903
21.632832 7.9476089 2.6606524
22.791346 7.9552436 2.6354878
22.805 7.9850006 2.645
23.929411 7.9456511 2.6507139
24.869228 7.9275007 2.652885
24.966621 7.9398828 2.6512792
25.056711 7.935853 2.6494682
25.150377 7.9375939 2.6527781
25.254557 7.9356704 2.6521113
25.353794 7.9346023 2.6469994
25.424288 7.9683371 2.6496382
25.548786 7.9852724 2.6528382
25.647633 7.985002 2.6507893
25.742777 7.9844437 2.6588891
25.847223 7.9850006 2.6516669
25.948889 7.9877777 2.6538887
26.057856 7.9950004 2.6907144
26.138998 7.9950004 2.6950002
26.215 7.9950004 2.6949999
26.970001 7.9850006 2.605
28.145817 7.9499331 2.6495204
29.094997 7.9750009 2.635
31.135 7.9250007 2.655
31.220001 7.9350004 2.6700001
31.325001 7.9850006 2.675
11.395 8.085001 2.6949999
12.969668 8.0470009 2.6556668
13.015627 8.0643759 2.6399999
15.944094 8.0504551 2.6604545
16.995001 8.0494442 2.6594446
17.005001 8.0550003 2.6340909
18.059002 8.0650005 2.6609998
19.758635 8.0427284 2.6472728
21.634476 8.0471067 2.6655262
22.145 8.0400009 2.6700001
22.245001 8.0450001 2.6816666
22.33 8.0450001 2.6700001
22.424999 8.0350008 2.6849999
22.528332 8.0683346 2.665
22.789877 8.0570526 2.6411533
22.805 8.0150003 2.645
23.927967 8.0508127 2.6490543
24.935001 8.085001 2.665
25.42206 8.0220604 2.6544118
25.535 8.0050001 2.675
25.971157 8.0296144 2.6455128
26.051113 8.0415316 2.6487498
26.151749 8.043705 2.6505845
26.250751 8.0458126 2.6453035
26.351633 8.047636 2.645211
26.450811 8.0475531 2.6506124
26.549326 8.0476179 2.652658
26.650915 8.0474586 2.6559834
26.748306 8.0482311 2.6572311
26.850689 8.0481844 2.6551914
26.948383 8.0463886 2.6550002
27.018427 8.0563335 2.6463332
28.147654 8.0495672 2.6450002
30.625 8.0050001 2.625
31.424999 8.0150003 2.6949999
11.440001 8.1550007 2.655
12.974001 8.1580009 2.6370001
13.040332 8.1643324 2.6443334
15.944525 8.1602383 2.6535716
16.028332 8.1750011 2.6350002
16.182501 8.1800003 2.6600001
16.248333 8.1750011 2.6683335
16.385002 8.1789999 2.6389999
16.465 8.1750011 2.6716666
16.588335 8.1816673 2.675
16.65 8.1700001 2.665
16.75 8.1750011 2.6500001
16.83 8.1725006 2.6475
16.982502 8.1450005 2.6599998
17.008335 8.1408339 2.6416669
18.065001 8.1350002 2.6592858
18.165001 8.1550007 2.6949999
18.295002 8.165 2.675
18.342501 8.1550007 2.6849999
18.485001 8.1750011 2.615
18.625 8.1550007 2.615
18.76 8.1499996 2.6099999
19.314999 8.1450005 2.6500001
19.760715 8.1550007 2.6507142
21.632143 8.1235714 2.6750002
22.528332 8.1583338 2.6616666
22.625 8.1450005 2.645
22.789419 8.1541176 2.6341174
22.805 8.1625004 2.6524997
23.932009 8.1498814 2.6486907
24.881668 8.1650009 2.6350002
24.932501 8.1525011 2.6524999
26.995005 8.1445456 2.6845458
27.007868 8.1500397 2.6447637
28.148426 8.1492653 2.6466174
29.094997 8.1950006 2.675
30.685001 8.1850004 2.645
30.735001 8.1750011 2.645
11.38 8.2350006 2.655
11.425001 8.2150002 2.6599998
12.995001 8.2600002 2.625
13.04803 8.2522745 2.6465154
15.938334 8.210001 2.645
19.761246 8.2517509 2.6470001
20.385002 8.2681246 2.6600003
20.435001 8.2250004 2.645
20.759445 8.2250004 2.633889
20.854 8.2215014 2.6325002
20.952003 8.2216663 2.6466663
21.026089 8.2564545 2.6488183
22.105 8.2825003 2.6900001
22.505001 8.2850008 2.6949999
22.793755 8.2450008 2.6433332
22.805004 8.253334 2.656667
23.930758 8.2537031 2.6498237
24.935001 8.2300005 2.6600001
25.487501 8.2650003 2.645
26.994999 8.2474995 2.6799998
27.009571 8.2497463 2.6431298
28.149277 8.2505322 2.6471972
29.085001 8.2250004 2.6849999
30.689999 8.2600002 2.645
30.754999 8.250001 2.6500001
13.037962 8.3468523 2.6420372
19.762943 8.3516665 2.6457696
20.380901 8.3570509 2.6560259
21.027828 8.3487301 2.6514177
22.109579 8.3562498 2.6700003
22.495001 8.3150005 2.645
22.535 8.3550005 2.6900001
22.793926 8.3512154 2.6387837
22.805004 8.3591671 2.6624999
23.934473 8.3508167 2.6452038
24.882999 8.3550005 2.6329999
24.938999 8.361001 2.6369998
25.4375 8.3425007 2.6600001
26.994999 8.3410006 2.6869998
27.010128 8.3492966 2.6447778
28.149979 8.349493 2.6494932
30.695002 8.3550014 2.6483333
30.748333 8.335001 2.6516669
31.894999 8.335001 2.675
11.375001 8.4350004 2.665
12.980001 8.4750004 2.655
13.034616 8.444231 2.6473079
19.769794 8.424201 2.6389999
19.852583 8.437068 2.6518967
19.955383 8.4361534 2.6500001
20.047146 8.4360704 2.6503572
20.141666 8.4359093 2.650152
20.247194 8.4342709 2.6493905
20.35886 8.4286385 2.6520452
21.049898 8.4231634 2.6541834
21.146847 8.4235182 2.6435184
21.25153 8.4203043 2.6466324
21.351002 8.4200001 2.6545002
21.453388 8.417676 2.6514285
21.552116 8.4163303 2.654778
21.627178 8.4150019 2.6550002
22.136822 8.4049997 2.6704545
22.295002 8.4050007 2.6949999
22.395 8.4050007 2.6949999
22.51 8.4050007 2.6900001
22.793081 8.4542313 2.6303842
22.805004 8.4400005 2.665
23.933689 8.4528456 2.6460342
24.94375 8.4549999 2.625
25.462498 8.4575014 2.64625
26.004999 8.4950008 2.6949999
26.994999 8.415 2.6799998
27.010513 8.4505548 2.6454446
28.150839 8.4508362 2.6513505
30.685001 8.4400005 2.6500001
30.758335 8.4516668 2.655
31.924999 8.4750004 2.6849999
12.969002 8.5650005 2.6469998
13.007503 8.5458336 2.6416669
21.935001 8.5950003 2.605
22.050716 8.5950003 2.6107144
22.154289 8.5949993 2.6121428
22.250835 8.5945816 2.6191666
22.353619 8.5929289 2.618793
22.451664 8.5916653 2.6226192
22.55122 8.5912218 2.6307778
22.651079 8.5895109 2.6353922
22.764456 8.5739088 2.6406167
22.805767 8.5569248 2.6423075
23.937603 8.5532255 2.6474299
24.945002 8.5550003 2.6240478
25.468529 8.5544119 2.6302938
25.975 8.5950003 2.605
26.004999 8.5200005 2.6399999
26.994999 8.5350008 2.655
27.011114 8.5495005 2.6459293
28.157131 8.5399218 2.657778
28.249939 8.5350056 2.6386368
28.35078 8.5350056 2.6389065
28.449924 8.5350056 2.6445775
28.54949 8.5303888 2.6457696
28.648499 8.5274124 2.6469278
28.756159 8.5272121 2.6480236
28.849529 8.5334053 2.6507335
28.946249 8.5314102 2.6534376
29.049557 8.5291195 2.6547055
29.105 8.5325003 2.6325002
30.659 8.5430012 2.6489999
30.738333 8.5566673 2.6550002
12.975 8.6783342 2.6350002
13.008753 8.6525002 2.6431251
21.885 8.6050005 2.605
21.939999 8.6050005 2.6099999
22.065001 8.6050005 2.605
22.375 8.6050005 2.615
22.405001 8.6050005 2.655
23.943598 8.6583061 2.6477151
24.053028 8.6768322 2.6486621
24.154678 8.6789808 2.647043
24.251705 8.6790524 2.6467721
24.352489 8.6790247 2.6542392
24.451452 8.6792135 2.6569738
24.549932 8.6778412 2.6543832
24.647469 8.6794739 2.6452365
24.750914 8.6789808 2.64328
24.845798 8.6820478 2.645227
24.942501 8.659029 2.6450002
25.478205 8.6601992 2.6290002
25.975 8.6483335 2.6516669
26.006817 8.6550007 2.655
26.994999 8.6850004 2.675
27.012882 8.6505842 2.6474831
28.159473 8.6255274 2.6810524
28.245996 8.6350012 2.6820004
28.344412 8.6349993 2.6855884
28.435001 8.6350012 2.692143
28.575001 8.6350002 2.6949999
30.594997 8.6850004 2.635
30.673334 8.6583347 2.6533332
30.727499 8.6374998 2.655
31.954998 8.6149998 2.6849999
11.425001 8.7750006 2.6849999
12.965002 8.7383327 2.6616666
13.008001 8.7460003 2.6470001
24.295002 8.7049999 2.615
24.370001 8.7049999 2.605
24.453335 8.7050018 2.6099994
24.551157 8.7050028 2.616154
24.653641 8.7050028 2.625
24.743641 8.7050028 2.6327274
24.835001 8.7049999 2.6399999
24.942265 8.750886 2.653131
25.474209 8.7643299 2.6416345
25.97974 8.7697372 2.6302629
26.007633 8.7360544 2.6486843
26.385 8.7950001 2.625
26.460499 8.7949982 2.6320002
26.555004 8.795001 2.635
26.650564 8.7950058 2.6395574
26.752079 8.7950077 2.6447752
26.850002 8.7950087 2.6499996
26.948608 8.7950077 2.6489172
27.019491 8.7539482 2.649152
30.570002 8.750001 2.635
30.670002 8.7450008 2.655
30.725 8.7150002 2.655
31.975 8.7550001 2.6949999
12.96773 8.840456 2.6568186
13.010002 8.8407145 2.6471429
24.962154 8.8205538 2.6501851
25.050203 8.8248987 2.6493874
25.151463 8.8244953 2.6506567
25.250818 8.8242388 2.6515722
25.352558 8.822401 2.6535826
25.441484 8.816164 2.6492558
25.549198 8.8184757 2.6442668
25.646307 8.8168049 2.6462293
25.748837 8.8156538 2.6492054
25.849981 8.8149967 2.6499996
25.953833 8.8142872 2.6504464
26.046576 8.8179922 2.6461816
26.150761 8.8133774 2.6463513
26.249548 8.8122787 2.6466668
26.351933 8.8107262 2.6495967
26.450855 8.8089323 2.6566129
26.54899 8.8083057 2.6579731
26.646708 8.8067951 2.6551802
26.740555 8.8054743 2.6515079
26.846363 8.8050022 2.6654546
26.977636 8.8086872 2.6502631
27.02412 8.8125401 2.6476319
30.528332 8.8550014 2.6350002
11.385001 8.9300003 2.6699998
11.43 8.9350004 2.6949999
12.967728 8.948637 2.6722722
13.028002 8.9420004 2.6355
29.968334 8.9650011 2.605
30.484997 8.9549999 2.635
30.564999 8.9549999 2.645
11.365 9.0050001 2.6949999
12.98 9.0324993 2.6637499
13.039576 9.0518589 2.6444287
30.447498 9.0650005 2.6275001
30.554998 9.0516682 2.645
30.605 9.0450001 2.655
13.046003 9.1503334 2.6433339
30.185001 9.1850004 2.625
30.204998 9.1550007 2.625
30.394999 9.1350002 2.625
30.468332 9.1650009 2.6350002
30.540714 9.139286 2.6464286
30.785 9.165 2.6849999
30.814999 9.125001 2.6849999
13.043892 9.2383337 2.6405556
30.1525 9.2650003 2.6224999
30.215 9.2450008 2.635
30.461002 9.2390003 2.6370001
30.553574 9.2592869 2.6535716
30.694998 9.2850008 2.675
30.74 9.2250004 2.6799998
12.975 9.3250017 2.6616666
13.030294 9.3314724 2.6449997
30.070002 9.3700008 2.615
30.148335 9.3650007 2.6266665
30.218334 9.3650007 2.6350002
30.443003 9.3550014 2.6390004
30.512501 9.3325005 2.6500001
30.638336 9.3616667 2.6716666
12.975 9.4516678 2.6683335
13.012779 9.4494448 2.6372218
30.041668 9.4566669 2.6116667
30.158337 9.460001 2.6300001
30.208332 9.4550009 2.6383336
30.394999 9.4850006 2.645
30.442499 9.4450006 2.6437497
30.559998 9.4549999 2.665
12.976428 9.5778589 2.6778574
13.014999 9.5572224 2.6399999
29.976665 9.5616665 2.606667
30.066818 9.5595455 2.6213634
30.128336 9.5327778 2.6283336
30.442499 9.5524998 2.6500001
30.514999 9.5050001 2.655
30.685001 9.5950003 2.665
30.73 9.5350008 2.665
12.975833 9.6675005 2.6683335
13.016876 9.65625 2.6399999
29.95577 9.6611547 2.6096148
30.036112 9.6327791 2.6205556
30.157001 9.6670008 2.6370001
30.204998 9.6050005 2.645
30.394999 9.6450005 2.645
30.424999 9.6149998 2.645
30.655003 9.6650009 2.6583333
12.977 9.7530003 2.6720002
13.016429 9.7421436 2.6321425
29.879002 9.7590008 2.605
29.9375 9.7358341 2.6091666
30.059286 9.7564297 2.6221428
30.115 9.7450008 2.6299999
30.5625 9.7674999 2.6525002
30.615 9.7150011 2.6599998
30.851665 9.7550001 2.6950002
12.979546 9.8468189 2.6768181
13.017728 9.8440914 2.6309087
29.859997 9.8200006 2.605
29.969997 9.8249998 2.615
30.078333 9.8150005 2.6216667
30.215 9.8250008 2.645
30.452499 9.8650007 2.6424999
30.504999 9.8150005 2.6500001
30.759998 9.8550005 2.6849999
30.825001 9.8650007 2.6949999
12.982778 9.9505558 2.6683335
13.016765 9.9455881 2.6344118
27.258749 9.9950008 2.68625
27.33643 9.9950008 2.6864285
27.431004 9.9950008 2.6929998
27.605 9.9950008 2.6849999
28.132839 9.9566212 2.6836488
28.225 9.915 2.6849999
28.525 9.915 2.6949999
30.049999 9.9700003 2.6075001
30.174999 9.958334 2.6216667
30.264999 9.9850006 2.625
30.3475 9.960001 2.6324999
30.414999 9.915 2.635
30.658335 9.9750013 2.6783333
30.731665 9.9283342 2.6850002
12.980998 10.052001 2.6780002
13.017942 10.041471 2.6297059
16.845001 10.094999 2.615
17.049999 10.085001 2.6399999
17.135 10.094999 2.635
17.240002 10.090001 2.645
17.365002 10.091668 2.6583333
17.445002 10.090001 2.655
18.947649 10.072648 2.6491172
19.056578 10.054475 2.6397367
19.157499 10.052501 2.6491668
19.244999 10.051842 2.6534212
19.359499 10.047499 2.6460001
19.433783 10.060366 2.6440241
21.04854 10.060591 2.6532359
21.14859 10.034491 2.6508975
21.249859 10.035004 2.6470003
21.3465 10.034754 2.648
21.442713 10.033288 2.6458571
21.544369 10.044376 2.6508756
26.063564 10.056154 2.6499231
26.149206 10.041199 2.6486356
26.250702 10.040408 2.6522593
26.350605 10.035199 2.6525528
26.449213 10.032566 2.6497033
26.549143 10.027761 2.647542
26.649633 10.024685 2.6443286
26.750448 10.024179 2.6478124
26.850061 10.024359 2.6522541
26.951303 10.024714 2.6526923
27.026775 10.05426 2.6527779
27.138931 10.040148 2.6550527
27.248936 10.02846 2.6558661
27.349049 10.031041 2.6556723
27.45055 10.031605 2.6576915
27.548798 10.030577 2.6636043
27.646633 10.029323 2.6645494
27.747202 10.026472 2.668529
27.84841 10.025001 2.6771953
27.948124 10.025001 2.6821876
28.028889 10.025001 2.6822226
28.14801 10.04482 2.6520483
28.251226 10.025286 2.6497171
28.351608 10.025891 2.649435
28.449757 10.024457 2.6493452
28.547562 10.029469 2.6471281
28.649021 10.030327 2.6480837
28.749786 10.031808 2.6498933
28.844641 10.021821 2.6506076
28.952017 10.023146 2.651804
29.049368 10.024125 2.6497498
29.127712 10.020414 2.6485417
29.985001 10.025001 2.605
30.075001 10.085001 2.615
30.132999 10.053 2.6129999
30.255001 10.045 2.625
30.309998 10.045 2.615
30.557501 10.0625 2.665
30.625 10.040001 2.675
30.804998 10.085001 2.6949999
12.983182 10.155001 2.6713638
13.018333 10.146429 2.6416664
16.568638 10.139544 2.6613638
16.648888 10.13611 2.6516666
16.742058 10.137352 2.6420588
16.844374 10.12875 2.6468749
16.941364 10.12591 2.6395452
17.058334 10.131667 2.625
17.119999 10.122501 2.6300001
17.242144 10.112144 2.6250002
17.375002 10.1175 2.635
17.473417 10.134475 2.6428947
17.50786 10.146906 2.6397619
18.933825 10.149902 2.6514707
19.453152 10.130556 2.6453705
19.560514 10.168793 2.641207
21.037289 10.150108 2.6546736
21.557854 10.120002 2.6571429
21.669075 10.15889 2.6542592
26.065836 10.148085 2.6454878
26.994999 10.165001 2.6949999
27.018162 10.14861 2.6512036
27.112514 10.142166 2.6460004
27.365 10.135001 2.605
27.460384 10.135 2.6088457
27.554195 10.135001 2.6137996
27.654186 10.134734 2.6195946
27.752447 10.134613 2.6253924
27.856304 10.132053 2.6289346
27.951794 10.129282 2.6358042
28.033772 10.128372 2.6382582
28.138062 10.144231 2.6446705
30.034998 10.135 2.605
30.151669 10.165001 2.6116667
30.261667 10.125 2.615
30.447001 10.155001 2.6530004
30.514999 10.125001 2.665
30.685001 10.195 2.6849999
30.755001 10.141001 2.6929998
12.984999 10.242778 2.6650004
13.023888 10.257778 2.6394448
16.562778 10.253889 2.6472223
17.495001 10.241667 2.6116667
17.506432 10.236429 2.6500001
18.865789 10.262847 2.6522548
18.908001 10.215001 2.6419997
19.565266 10.245 2.643919
20.962009 10.25454 2.6527011
21.006001 10.207 2.6399999
21.673658 10.247538 2.6497767
23.345001 10.285002 2.6099999
23.561668 10.285002 2.6116667
23.765001 10.2875 2.6325002
23.988846 10.292692 2.6550002
24.007 10.295 2.6389999
24.183001 10.292 2.6419997
24.217081 10.294996 2.6441672
24.374073 10.281253 2.6489062
24.450661 10.275101 2.6489398
24.55077 10.275001 2.6493294
24.650036 10.275001 2.6493566
24.750177 10.263319 2.6483567
24.848434 10.255285 2.6484315
24.950062 10.254688 2.6492424
25.050289 10.254251 2.6510186
25.151615 10.259773 2.6482174
25.247997 10.266843 2.6452498
25.347111 10.271583 2.6491227
25.477356 10.289515 2.6487257
25.685471 10.288724 2.654767
25.705002 10.291667 2.6233335
25.890177 10.28776 2.6556895
25.908497 10.287499 2.6454999
26.065105 10.246693 2.6477418
27.013113 10.245673 2.6447294
27.116068 10.240715 2.635
28.139669 10.248405 2.6479783
29.975 10.205 2.605
30.070002 10.23 2.605
30.154999 10.285002 2.6200001
30.262997 10.259 2.6270003
30.352142 10.240716 2.6464286
30.424999 10.215 2.655
30.564999 10.295 2.675
30.636999 10.247001 2.6810002
30.73 10.27 2.6949999
12.984999 10.336431 2.6650002
13.025003 10.351522 2.6384783
16.561367 10.338636 2.6540909
17.511667 10.318333 2.645
18.78339 10.370161 2.6562903
18.817755 10.322243 2.646724
19.570261 10.351316 2.6339474
20.8894 10.364 2.6547997
20.912918 10.316252 2.6441665
21.676889 10.336695 2.6480193
21.890835 10.3325 2.6633334
21.946577 10.342894 2.6318419
22.089615 10.329618 2.6396155
22.136927 10.337311 2.6496158
22.259588 10.339167 2.6579165
22.333206 10.33321 2.6451285
22.450626 10.344999 2.6518753
22.530355 10.333028 2.646745
22.648262 10.344999 2.6470411
22.738117 10.33296 2.6480107
22.850506 10.343006 2.6496673
22.945286 10.327169 2.6516042
23.049028 10.33411 2.647985
23.151112 10.323055 2.6517959
23.250128 10.329391 2.6404877
23.355167 10.321516 2.6486442
23.454655 10.32822 2.6382189
23.558363 10.322325 2.6440079
23.651527 10.328661 2.6407433
23.765209 10.330851 2.6465337
23.805773 10.324999 2.6134615
23.991161 10.339247 2.6522603
24.04154 10.332632 2.6453724
24.152002 10.326649 2.6495669
24.243084 10.321806 2.6422267
24.345331 10.320482 2.6456454
24.405001 10.315001 2.6949999
25.380901 10.315979 2.6489341
25.449291 10.316027 2.6445918
25.549091 10.31681 2.6479506
25.650522 10.313601 2.650327
25.749683 10.313536 2.6471097
25.853491 10.315928 2.6491179
25.906429 10.336431 2.6464286
26.068075 10.347704 2.6457205
26.994999 10.35 2.6949999
27.013208 10.340384 2.6457691
27.115 10.336111 2.6483331
28.140671 10.344332 2.6516671
30.053574 10.349287 2.6078572
30.159998 10.358335 2.6233335
30.237499 10.315001 2.6299999
30.471668 10.375 2.665
30.549 10.351 2.6729999
30.655003 10.348333 2.6850002
30.742498 10.365001 2.6949999
12.989001 10.408999 2.6589999
13.025574 10.437286 2.6467144
16.56654 10.452692 2.6650002
18.781002 10.45191 2.6517272
19.575001 10.445 2.6210001
20.890583 10.44673 2.6446159
23.79108 10.44143 2.6317859
23.995007 10.443666 2.6740003
24.00499 10.452174 2.6356525
25.894999 10.452501 2.6775
25.905003 10.449001 2.6230001
26.064697 10.440001 2.6517189
27.022772 10.451667 2.646667
27.117502 10.460001 2.6424999
28.139374 10.445 2.6506248
29.985001 10.440001 2.605
30.042999 10.449001 2.6109998
30.109997 10.405001 2.6200001
30.285 10.485002 2.635
30.358334 10.465001 2.6516669
30.442139 10.442144 2.6607141
30.545002 10.439001 2.675
30.646667 10.440001 2.6883335
12.665 10.585001 2.665
12.721666 10.588335 2.6333334
13.032692 10.531923 2.6465383
16.566002 10.539001 2.638
18.782579 10.541668 2.6516669
19.585001 10.535002 2.605
20.892111 10.548948 2.6431582
23.79409 10.541365 2.615
23.994999 10.546667 2.6833334
24.004993 10.545002 2.6355882
25.894999 10.550715 2.6778574
25.905005 10.551669 2.6283331
26.069 10.542666 2.6503332
26.994999 10.555 2.645
27.015003 10.543571 2.6235714
27.125 10.575001 2.625
28.139999 10.5425 2.6624999
29.958334 10.531668 2.605
30.039999 10.565001 2.6099999
30.157001 10.561001 2.625
30.251999 10.551001 2.6410003
30.35 10.532499 2.6500001
30.462498 10.555 2.6650002
30.547501 10.545 2.6775
30.658335 10.565001 2.6950002
12.719119 10.652058 2.6508825
16.567501 10.642501 2.6449997
18.780657 10.638914 2.6571741
20.893009 10.649288 2.646714
23.794998 10.653462 2.6149998
23.994999 10.63591 2.6859093
24.004993 10.647759 2.640862
25.904999 10.645 2.6299999
26.066364 10.636364 2.6559091
26.994999 10.665 2.6949999
27.008999 10.65 2.6489999
27.120001 10.63 2.6349998
28.125 10.65 2.6200001
30.063751 10.658751 2.6174998
30.145 10.627857 2.6292858
30.262497 10.657499 2.6399999
30.35 10.6475 2.655
30.4375 10.635001 2.6700001
30.565002 10.665001 2.6816666
30.659 10.655001 2.6910002
30.74 10.635001 2.6949999
12.716429 10.729287 2.6435714
16.565668 10.748334 2.6610003
18.785715 10.749287 2.6428571
19.555 10.775001 2.675
20.894238 10.749873 2.6432054
23.794998 10.753752 2.6399999
23.988335 10.785002 2.645
24.005001 10.739738 2.6481576
25.891001 10.751001 2.6849999
25.904999 10.731668 2.6283333
26.070456 10.760455 2.6613638
27.041668 10.751668 2.6783333
27.121668 10.748334 2.645
28.131668 10.751668 2.6583333
29.885 10.745 2.605
29.9625 10.719999 2.6075001
30.042999 10.757001 2.6170001
30.158335 10.758334 2.6350002
30.245001 10.745 2.645
30.35 10.75 2.6575
30.4625 10.7575 2.6675
30.532497 10.73 2.6775
30.605 10.705 2.6849999
30.76 10.780001 2.6949999
16.566175 10.844411 2.6479411
18.779999 10.846999 2.6389999
20.88616 10.833076 2.6415381
23.792271 10.855909 2.6404545
24.005718 10.847857 2.6528573
25.894999 10.87 2.6949999
25.907497 10.845001 2.6325002
26.062855 10.833573 2.6621432
27.009998 10.83 2.655
28.125 10.84 2.645
29.965 10.844999 2.6099999
30.056248 10.853751 2.6212499
30.152142 10.829287 2.6335716
30.238333 10.818335 2.6416669
30.424999 10.825001 2.675
30.585001 10.885001 2.675
30.66 10.840001 2.6849999
16.565836 10.930834 2.6541667
23.795 10.93643 2.6678576
23.982502 10.99 2.6524999
24.006004 10.952002 2.6500001
25.904999 10.925 2.6500001
29.994999 10.905001 2.615
30.375 10.985002 2.655
30.450001 10.945 2.6599998
30.525 10.905001 2.675
23.795002 11.035002 2.6599998
23.805 11.065001 2.605
23.983 11.033001 2.6589999
24.011669 11.056667 2.6316667
25.904999 11.094999 2.665
23.787502 11.127501 2.6699998
23.975 11.165 2.6949999
24.009001 11.155001 2.6570001
25.908335 11.155001 2.6583333
29.994999 11.195 2.615
21.905003 11.268334 2.6116667
23.795002 11.255 2.645
23.975 11.215 2.6849999
24.015001 11.260001 2.6299999
25.9125 11.214998 2.6424999
21.905001 11.355 2.6299999
23.795002 11.305 2.665
23.805 11.375001 2.605
23.981668 11.338335 2.675
24.015001 11.32 2.645
25.904999 11.325001 2.6949999
30.254999 11.395 2.645
30.355 11.385001 2.665
21.91 11.4925 2.6475
23.795002 11.435001 2.6949999
23.975 11.440001 2.6949999
24.011669 11.451668 2.6516669
30.185001 11.415 2.645
30.264999 11.415001 2.6500001
30.485001 11.485002 2.675
30.544998 11.455 2.6849999
30.605 11.435001 2.6949999
21.907 11.551001 2.631
23.805 11.545 2.635
24.015001 11.525001 2.675
25.914999 11.565001 2.645
30.355 11.525001 2.665
30.424999 11.505 2.665
21.906542 11.648846 2.6434617
23.985001 11.695 2.6949999
24.015001 11.635001 2.615
21.911366 11.764093 2.6277273
23.805 11.795 2.6849999
24.01 11.795 2.6399999
25.914999 11.775001 2.675
21.895 11.828334 2.6633334
21.905001 11.83 2.6099999
23.825001 11.825001 2.605
30.235001 11.885001 2.605
12.3125 -7.7274995 2.7625
12.160002 -7.6599998 2.7249999
12.315001 -7.6449995 2.7149999
12.161667 -7.5716667 2.7216668
12.315001 -7.5949998 2.7649999
14.035001 -7.5449996 2.7750001
14.175 -7.5349998 2.7149999
12.165 -7.4650002 2.7570002
12.3175 -7.4699998 2.7375
14.055 -7.4049997 2.7649999
12.165 -7.335 2.7149999
12.315001 -7.3583336 2.7350001
14.045001 -7.3650002 2.7449999
12.165001 -7.2624998 2.7449999
12.310001 -7.2599998 2.74
14.055 -7.2650003 2.7850001
12.17 -7.1550002 2.74
12.310001 -7.125 2.7549999
14.045001 -7.1549997 2.7750001
14.185 -7.1849999 2.7649999
12.171667 -7.0483336 2.7316666
12.310001 -7.0599999 2.7149999
14.05 -7.0349998 2.77
14.190001 -7.0399995 2.7599998
12.172502 -6.9275002 2.73
12.325001 -6.915 2.7549999
14.055 -6.9250002 2.7449999
14.185 -6.9650002 2.7449999
12.175001 -6.8449998 2.7049999
12.315001 -6.8849998 2.7949998
14.05 -6.8650002 2.7599998
14.1875 -6.8425002 2.7449999
12.175001 -6.7150002 2.7149999
12.32 -6.7399993 2.7450001
14.052999 -6.7789993 2.7610002
14.195002 -6.7349997 2.7750001
12.175001 -6.6449995 2.7949998
12.325001 -6.6849999 2.7649999
14.185 -6.6800003 2.77
12.175001 -6.5449996 2.7949998
12.315001 -6.5483332 2.7716668
14.055 -6.5749998 2.7949998
14.185 -6.5650001 2.7649999
12.175001 -6.4449997 2.7649999
12.315001 -6.4849997 2.7249999
13.195002 -6.4650002 2.7949998
13.251668 -6.4683332 2.7783332
13.325 -6.4650002 2.7249999
13.475 -6.4749999 2.7350001
14.055 -6.4849997 2.7549999
14.195002 -6.4749999 2.7049999
12.18 -6.335 2.75
12.322501 -6.355 2.73
13.075 -6.3800001 2.7149999
13.165001 -6.3850002 2.7249999
13.25 -6.3800001 2.75
13.365001 -6.375 2.7750001
13.455 -6.3550005 2.7350001
14.065 -6.375 2.74
14.185 -6.3283339 2.7249999
12.185001 -6.2800002 2.7750001
12.335001 -6.2950001 2.7649999
12.435001 -6.2600002 2.74
12.560001 -6.2600002 2.7599998
12.695 -6.2550001 2.7549999
12.75 -6.2600002 2.75
12.861669 -6.2616668 2.7649999
12.935 -6.2650003 2.7249999
13.695002 -6.2800002 2.76
13.761668 -6.2761106 2.7383332
13.851252 -6.276875 2.7474997
13.954376 -6.2781248 2.7499998
14.055628 -6.2762499 2.7437499
14.142143 -6.2797613 2.7383332
12.185001 -6.165 2.7449999
12.245 -6.1525002 2.7450001
12.344999 -6.1550002 2.7583334
12.431667 -6.1550002 2.7783332
12.548334 -6.1583338 2.7416668
12.655001 -6.1550002 2.7949998
12.73 -6.1550002 2.7750001
13.653002 -6.1750002 2.7449999
13.740001 -6.1754999 2.7509999
13.856249 -6.1774993 2.7506249
13.959581 -6.17875 2.7637501
14.03375 -6.1837502 2.76125
11.365 -4.5050001 2.7449999
11.255 -4.3249998 2.7949998
13.983 -4.3429999 2.7310002
15.475 -4.3183336 2.7483335
13.885 -4.2349997 2.75
13.985001 -4.2350001 2.7216668
15.365001 -4.2449999 2.7350001
15.475 -4.2710004 2.7509999
13.881668 -4.1516671 2.7583334
13.985001 -4.1400003 2.7524998
15.366669 -4.1533337 2.7450004
15.473001 -4.1470003 2.7670002
13.875 -4.085 2.7850001
13.991669 -4.0483336 2.7116666
15.367502 -4.0675001 2.7399998
15.475 -4.0550003 2.7474999
11.215 -3.9749999 2.7249999
13.985001 -3.9521434 2.7678573
15.368335 -3.9650006 2.7466667
15.485001 -3.9150002 2.7549999
13.985001 -3.825 2.7450001
15.3725 -3.8525002 2.7575002
15.476428 -3.8550007 2.7507143
13.895001 -3.7450001 2.7149999
13.985001 -3.75 2.73
15.371 -3.7510002 2.7570002
15.475 -3.7535717 2.7492859
13.985001 -3.6550002 2.7850001
15.373571 -3.6492858 2.7435718
15.475 -3.6490002 2.7590001
15.370001 -3.5400002 2.7424998
15.475 -3.561667 2.7566667
15.375 -3.4749999 2.7583334
15.475 -3.4550004 2.7525001
13.975 -3.325 2.7549999
15.377001 -3.3450005 2.7550001
15.478334 -3.3350003 2.7283332
15.378334 -3.2550004 2.7516668
15.475 -3.2750001 2.79
15.380002 -3.1633334 2.7283332
15.475 -3.1583333 2.7550001
15.375 -3.095 2.7249999
15.475 -3.0583334 2.7549999
15.381668 -2.9583335 2.7583334
15.475 -2.9400001 2.77
15.383 -2.8629999 2.737
15.47625 -2.8487504 2.74875
15.515001 -2.8050001 2.7949998
15.605 -2.8050001 2.7949998
15.858335 -2.8050001 2.7849998
15.385 -2.7616668 2.7383335
15.466665 -2.7441671 2.7550001
15.553423 -2.772105 2.759737
15.648335 -2.7736108 2.741389
15.753386 -2.7685483 2.7420967
15.833239 -2.7779415 2.7332354
15.388334 -2.6950002 2.7483335
15.445003 -2.6950002 2.7429998
15.542002 -2.6950002 2.733
15.649445 -2.6949999 2.7494445
15.7375 -2.6950002 2.7549999
6.8250008 -2.5216668 2.7349999
15.805 -2.5300002 2.7449999
6.8238893 -2.4616666 2.7327778
15.720001 -2.4650002 2.75
15.809286 -2.4635715 2.7321429
6.8240004 -2.3559999 2.7269998
15.740001 -2.375 2.72
15.810556 -2.353889 2.7638888
6.8210006 -2.2530003 2.7249999
15.725 -2.2750001 2.7949998
15.807001 -2.2530003 2.7350001
6.8283339 -2.1283333 2.7183335
11.295 -2.1750002 2.7149999
15.735001 -2.1650002 2.7549999
6.8266678 -2.0183334 2.7650001
11.193333 -2.0400002 2.7708335
11.272501 -2.0450001 2.72
15.735001 -2.0650001 2.7149999
15.807501 -2.0350003 2.7375
6.8250008 -1.9550002 2.7850001
11.194443 -1.9461113 2.7605557
11.25643 -1.9364288 2.7392857
11.305 -1.9225003 2.7249999
15.8125 -1.9675003 2.74
6.8266668 -1.8633335 2.7666669
11.193332 -1.8477777 2.7583332
11.235 -1.8372223 2.7394443
11.305 -1.8330002 2.7310002
15.875 -1.885 2.7149999
15.930002 -1.8600003 2.73
6.8325005 -1.7325001 2.7649999
11.193666 -1.7536669 2.755667
11.223001 -1.7420002 2.744
11.30625 -1.7550001 2.7474999
15.955 -1.7850001 2.7149999
6.8316674 -1.6216667 2.7516665
11.195 -1.6370001 2.7509999
11.205001 -1.6513637 2.7368181
11.305 -1.6550003 2.7472224
6.8300004 -1.5475 2.7525001
11.195 -1.545 2.7249999
11.205002 -1.5511539 2.7357695
11.305 -1.5549999 2.7424998
14.165001 -1.515 2.7249999
6.8266668 -1.4516666 2.7433333
11.205002 -1.4503847 2.7396154
11.305 -1.475 2.7750001
6.8270006 -1.349 2.7670002
11.213573 -1.3449999 2.7335715
11.3075 -1.3275 2.74
14.075 -1.3616667 2.7149999
14.165001 -1.375 2.7249999
15.965001 -1.345 2.7249999
6.829 -1.2600001 2.744
11.207309 -1.2465385 2.737308
11.30625 -1.2524999 2.7337499
13.155001 -1.255 2.7350001
14.075 -1.2850001 2.72
14.145001 -1.295 2.7750001
6.8300004 -1.155 2.7558331
11.207669 -1.135 2.7476668
11.306818 -1.1422727 2.7404547
13.160001 -1.115 2.73
14.075 -1.115 2.7750001
14.160001 -1.135 2.7099998
15.745001 -1.1183333 2.7249999
5.5750003 -1.0280769 2.7488461
6.3450003 -1.005 2.7449999
6.5150003 -1.005 2.7249999
6.8272233 -1.0483334 2.7583334
11.208465 -1.0442308 2.7442307
11.327857 -1.0192858 2.7478571
11.415 -1.015 2.7850001
11.585001 -1.015 2.7850001
11.695 -1.015 2.7149999
11.735002 -1.015 2.7249999
11.895 -1.015 2.7350001
12.461251 -1.0200001 2.7599998
12.55773 -1.0522727 2.7522728
12.875 -1.005 2.7049999
13.035001 -1.015 2.7850001
13.140001 -1.0150001 2.7466664
13.392779 -1.0205556 2.7727778
14.08 -1.0699999 2.7549999
14.160001 -1.0649999 2.7225001
15.74409 -1.0431819 2.741364
4.9749999 -0.995 2.73
5.2849998 -0.995 2.7249999
5.4650002 -0.98500001 2.7449999
6.3849998 -0.995 2.7949998
6.4450006 -0.995 2.72
6.5650001 -0.995 2.7850001
6.6350007 -0.995 2.79
11.210003 -0.94350004 2.7455001
11.365 -0.90500003 2.78
11.815001 -0.90500003 2.7850001
12.46375 -0.95458335 2.7433333
12.560001 -0.90500003 2.7549999
12.648334 -0.90500003 2.7600002
12.763002 -0.90600002 2.75
12.825 -0.90749997 2.7525001
12.967501 -0.91125011 2.7862499
13.055002 -0.91409099 2.7622728
13.295001 -0.92000008 2.7249999
13.330602 -0.92739999 2.757
13.405001 -0.91499996 2.7149999
14.069002 -0.921 2.7289999
15.746874 -0.94687492 2.7399998
15.825 -0.96500003 2.7683334
11.225 -0.89499998 2.7599998
11.335001 -0.89499998 2.7649999
11.438334 -0.89166671 2.7316666
11.585001 -0.89499998 2.7750001
11.675001 -0.89499998 2.7350001
11.715 -0.89499998 2.7249999
13.295001 -0.84666669 2.7283332
13.329364 -0.84910262 2.7473083
13.988335 -0.81333333 2.7566667
14.030001 -0.8572222 2.7555556
15.749498 -0.84500009 2.7425001
15.831472 -0.83794117 2.7544115
13.295001 -0.71944445 2.7449999
13.316614 -0.76467746 2.7356451
13.411667 -0.7883333 2.7450001
13.509001 -0.74799997 2.756
13.960554 -0.7727778 2.7616665
15.750216 -0.75083333 2.7454162
15.832003 -0.75150001 2.7470002
16.395 -0.70499998 2.7149999
16.645 -0.70499998 2.7049999
17.174999 -0.70499998 2.7350001
13.295001 -0.6925 2.7574999
13.335001 -0.68699998 2.7450001
13.424501 -0.64975011 2.7505002
13.511668 -0.69166672 2.7316666
13.753668 -0.62233335 2.7283335
13.838158 -0.61710536 2.7376318
13.918001 -0.61300004 2.7379999
15.752948 -0.64999998 2.7509091
15.846112 -0.63833338 2.7516668
15.935 -0.63999999 2.7550001
16.053333 -0.62250006 2.7575002
16.147001 -0.634 2.7490001
16.265909 -0.64045465 2.7468181
16.343334 -0.66416663 2.7416668
16.455002 -0.65785718 2.7478571
16.556877 -0.64249992 2.7731252
16.642275 -0.64954543 2.7413635
16.752501 -0.64874995 2.7450001
16.856112 -0.6405555 2.7561107
16.935001 -0.63499999 2.75
17.052502 -0.65249997 2.7424998
17.129288 -0.63785714 2.7764287
17.225 -0.69499999 2.7549999
17.305 -0.69499999 2.7449999
13.423889 -0.58722222 2.7583332
13.551668 -0.58500004 2.7383332
13.673001 -0.58900005 2.7389998
13.771001 -0.59500003 2.7289999
13.859001 -0.59400004 2.74
13.935 -0.58999997 2.73
15.55 -0.42624998 2.7512498
15.60643 -0.4221428 2.7335715
15.495001 -0.33250001 2.7525001
15.53211 -0.34855559 2.7441115
15.605 -0.3775 2.74
15.395001 -0.25500003 2.7350001
15.42393 -0.24607143 2.7603571
15.513803 -0.27059993 2.7462001
15.432371 -0.15552633 2.7534213
15.507503 -0.18000002 2.7508335
15.433003 -0.050999999 2.7526002
15.508891 -0.074999996 2.7427778
15.440603 0.062200002 2.7485995
15.508046 0.039782606 2.7515216
15.436899 0.15797298 2.7506759
15.505 0.12611112 2.7516665
15.665771 0.18346156 2.7473078
15.439502 0.22049999 2.7495
15.582144 0.2564286 2.7435715
15.63367 0.26500002 2.7549999
15.767499 0.26750001 2.7437501
15.665001 0.32293108 2.7494826
15.717859 0.35928568 2.7378573
15.815001 0.315 2.7350001
16.866669 0.37833333 2.7366667
16.795002 0.47100005 2.777
16.841244 0.45600009 2.7387502
12.645 0.56166679 2.7183332
12.805 0.53500003 2.7149999
12.980001 0.53500003 2.7149999
13.027 0.53100002 2.7330003
13.160001 0.53500003 2.7450001
13.495001 0.53500003 2.7249999
13.685 0.52500004 2.7750001
15.607002 0.58700001 2.7460001
15.815001 0.57500005 2.7350001
15.94 0.565 2.7450001
16.035 0.565 2.7350001
16.245001 0.57500005 2.7649999
16.310001 0.565 2.73
16.795 0.5430001 2.7843337
16.83009 0.55482465 2.739737
11.105 0.64500004 2.7149999
11.255 0.64500004 2.72
12.573751 0.66812497 2.7362499
12.665001 0.63500005 2.73
12.75625 0.63500005 2.7462499
12.858002 0.63499999 2.737
13.075 0.62500006 2.7149999
13.185 0.63500005 2.7249999
13.278334 0.62833339 2.7216666
13.363001 0.63100004 2.7490001
13.467501 0.62750006 2.7549999
13.541669 0.63166672 2.7583334
13.615001 0.62500006 2.7649999
13.705 0.61500001 2.7149999
15.495001 0.69500005 2.7949998
15.541403 0.66900009 2.7433999
15.629547 0.64590907 2.7404547
15.755 0.63500005 2.7049999
15.852501 0.63500005 2.7649999
15.925 0.63500005 2.7449999
16.060001 0.64000005 2.7249999
16.149 0.63500005 2.7350001
16.237499 0.64250004 2.7350001
16.795 0.64583337 2.7841668
16.816837 0.6402632 2.7368426
20.525 0.61500001 2.7649999
12.570002 0.72000009 2.7516668
15.445002 0.78250003 2.76
15.535002 0.73940003 2.7433999
16.795002 0.70500004 2.7949998
16.815001 0.71899998 2.737
15.443461 0.84115398 2.7334619
13.920001 0.95500004 2.7649999
15.447223 0.9372223 2.7272224
15.431668 1.0483334 2.7416668
13.931668 1.1450001 2.7583334
15.445002 1.1650001 2.7149999
11.775001 1.225 2.7149999
13.915001 1.205 2.7249999
15.471251 1.2737501 2.7662501
15.505002 1.2683334 2.7816665
13.935 1.355 2.7149999
13.935 1.425 2.79
11.775001 1.585 2.7049999
13.935 1.525 2.7750001
11.795 1.7850001 2.7449999
13.940001 1.7099998 2.7149999
11.790001 1.845 2.7249999
16.612001 1.8629999 2.7490001
11.795 1.9949999 2.7249999
16.595001 1.915 2.7949998
16.610003 1.9416666 2.7516668
11.7675 2.085 2.7525001
11.594999 2.1849999 2.7350001
11.6175 2.1675 2.7150002
11.737501 2.1825001 2.7275
13.765001 2.175 2.7750001
13.870001 2.175 2.7750001
13.945002 2.155 2.7850001
16.830334 2.153667 2.7430003
11.615 2.2949998 2.7599998
16.827942 2.2426469 2.7549999
5.0450001 2.3449998 2.7949998
11.585001 2.355 2.7249999
11.622501 2.3575001 2.74
13.735001 2.3349998 2.7850001
16.829546 2.3413634 2.7522728
11.085001 2.405 2.7049999
11.175001 2.405 2.7049999
11.275001 2.405 2.7049999
11.375001 2.405 2.7049999
11.615 2.405 2.7049999
12.594999 2.4949999 2.7750001
12.65 2.4949999 2.7349999
12.758334 2.4683332 2.7566667
12.828336 2.4950001 2.7583334
12.935002 2.4935713 2.7464287
13.045 2.4924998 2.7649999
13.15 2.49 2.7750001
13.385 2.4949999 2.7049999
13.470001 2.4949999 2.75
13.556668 2.49 2.7533333
13.669001 2.4889998 2.7529998
13.740001 2.45 2.72
16.827221 2.4438891 2.7650001
12.665001 2.5049999 2.7316666
12.745 2.5049999 2.7249999
12.865001 2.5049999 2.7350001
16.828335 2.5516667 2.7591665
27.028332 2.5849998 2.7450001
28.054998 2.575 2.7149999
29.075001 2.5449998 2.7149999
30.151669 2.5516667 2.7450001
16.240002 2.6949999 2.7225001
16.337502 2.6874998 2.7450001
16.827501 2.6541667 2.7583334
24.705 2.6900001 2.7049999
25.76333 2.6788888 2.7555556
26.020834 2.6616664 2.7483335
26.821003 2.6635001 2.7389998
27.040623 2.645 2.7524996
28.064999 2.675 2.7350001
28.127857 2.659286 2.7750001
16.833332 2.7566669 2.7466671
21.215 2.7850001 2.7350001
23.895 2.7816665 2.7416668
25.755909 2.7549999 2.7518184
26.023571 2.7535715 2.7585716
26.816736 2.7497828 2.7545655
27.035477 2.7445238 2.7588096
27.975 2.7950001 2.7783332
28.054998 2.7549999 2.7149999
28.135 2.7599998 2.7575002
30.142498 2.7474999 2.7525001
16.835833 2.8499999 2.7499998
21.215 2.8575001 2.7474999
22.695002 2.875 2.7549999
22.705 2.8700001 2.7649999
23.895 2.8416667 2.7383335
25.754328 2.8546672 2.7509999
26.025284 2.8484282 2.7389998
26.820858 2.8498273 2.7522416
27.038132 2.8428121 2.7562501
27.975 2.8399999 2.7649999
28.064999 2.825 2.7149999
28.144999 2.855 2.7649999
29.075001 2.8499999 2.7249999
16.837502 2.9541664 2.7424998
21.21603 2.9543104 2.7570689
22.695002 2.925 2.7350001
23.885002 2.9916668 2.7183335
25.757318 2.9505818 2.7482557
26.020834 2.9513886 2.7338891
26.820118 2.9505811 2.7550001
27.037436 2.9618287 2.7515855
27.979 2.9769998 2.7590001
28.064999 2.9549999 2.7449999
28.120716 2.9507146 2.7664287
29.075001 2.9749999 2.7049999
30.16 2.99 2.7349999
16.387665 3.0723338 2.7403336
16.830715 3.0407143 2.7621427
20.325001 3.0799999 2.72
21.219721 3.0533333 2.7525001
25.757404 3.0525918 2.7501855
26.024998 3.0506527 2.7302177
26.820501 3.0533333 2.7581668
27.041061 3.0489392 2.7533329
27.976252 3.0687499 2.7649999
28.059286 3.0507145 2.719286
28.132145 3.0564287 2.774286
29.079998 3.0700002 2.77
29.120001 3.0700002 2.7249999
30.145 3.0416667 2.7549999
32.555 3.075 2.7949998
15.485001 3.175 2.7949998
15.895001 3.155 2.7850001
15.915001 3.165 2.7949998
16.035 3.135 2.7549999
16.174999 3.135 2.7549999
16.268333 3.1266668 2.7683332
16.388336 3.1514106 2.7391026
16.848001 3.151 2.7590003
16.947727 3.1831822 2.7459092
17.047274 3.1831822 2.7472727
17.165668 3.1823335 2.7456667
17.241367 3.1777275 2.7404544
17.348848 3.1796155 2.741154
17.437729 3.1795459 2.7531819
17.545 3.1778574 2.7521429
17.652273 3.175 2.7577276
17.745716 3.1750002 2.7478573
17.857 3.179667 2.7650001
17.933889 3.1805556 2.7438889
18.053003 3.1776669 2.7523336
18.155716 3.1792862 2.7385716
18.269289 3.1764286 2.7450001
18.350454 3.1822729 2.7449999
18.447668 3.1790004 2.751667
18.547729 3.1740909 2.7622728
18.640881 3.1773531 2.7491176
18.74794 3.1785295 2.7508826
18.851471 3.1773531 2.7432353
18.94265 3.1779411 2.7491176
19.039547 3.1777275 2.7522728
19.154415 3.1761765 2.7391174
19.255001 3.1757693 2.7488463
19.34577 3.1750002 2.7503848
19.450624 3.175 2.753125
19.546579 3.175 2.7476315
19.644285 3.1750002 2.7557147
19.738079 3.1742308 2.741154
19.842224 3.1722224 2.7338889
19.949116 3.1714709 2.7497058
20.055 3.1704545 2.7450004
20.15206 3.1691175 2.750294
20.248751 3.1693749 2.7462502
20.31921 3.1423683 2.7381577
21.185001 3.165 2.7049999
21.223001 3.1509998 2.7525003
23.885 3.115 2.7449999
24.692333 3.1756668 2.7303333
24.705 3.1590002 2.7389998
25.749304 3.1609335 2.7487361
26.027607 3.1484785 2.7356524
26.785004 3.1831477 2.7533333
26.816187 3.1407647 2.7485294
27.039204 3.1572368 2.7590792
27.977859 3.1730957 2.7730951
28.058334 3.145 2.7266667
28.140503 3.1615 2.7750003
29.076115 3.145 2.7427778
30.135004 3.1283333 2.7550001
32.485001 3.1200001 2.7949998
5.0549998 3.2049999 2.7549999
15.885 3.2099998 2.76
15.915001 3.2675004 2.7750001
16.389372 3.2368748 2.7362499
18.565001 3.2450001 2.7149999
18.657001 3.2370002 2.7310002
18.747501 3.2393754 2.7331252
18.841433 3.2350006 2.7621429
18.942274 3.2359097 2.784091
19.070002 3.2349999 2.7049999
19.153572 3.2307143 2.7307143
19.257355 3.2338233 2.7355883
19.349545 3.2340913 2.7595456
19.445002 3.2325001 2.78125
19.635 3.2150002 2.7049999
19.752693 3.2126923 2.7196155
19.8475 3.2112496 2.7325001
19.954411 3.214412 2.7632353
20.046665 3.2150002 2.7775002
20.145 3.2150002 2.7850001
21.195002 3.2683334 2.7083335
21.221083 3.2706523 2.7502174
24.595001 3.2950001 2.7750001
24.639759 3.2510324 2.7492857
24.975 3.2705555 2.7161112
25.670532 3.2653961 2.7480695
25.713772 3.2169514 2.7435365
26.028992 3.2548454 2.7365389
26.692205 3.2909999 2.7565999
26.736362 3.2445843 2.7500298
27.043488 3.2507012 2.7536914
27.977631 3.2555263 2.762368
28.066849 3.2553706 2.7420371
28.143284 3.2494826 2.7732763
29.079708 3.2600942 2.7491508
29.11269 3.2803853 2.7480769
30.154501 3.2800002 2.7610004
15.825 3.375 2.7949998
15.915001 3.3349998 2.76
16.387573 3.3538566 2.7361431
21.195 3.3590004 2.7070003
21.221386 3.3430562 2.7499998
22.695002 3.3083336 2.7116666
23.750458 3.3695457 2.7377269
23.895 3.3849998 2.7549999
23.945002 3.3950005 2.735769
24.020557 3.395 2.7505558
24.559456 3.3495743 2.7477655
24.605 3.3049998 2.7450001
24.97176 3.3536491 2.7452703
25.060749 3.3799999 2.7497501
25.59436 3.3653226 2.7685485
25.616602 3.3419998 2.7423
26.045002 3.3464863 2.7470798
26.140213 3.3706532 2.7478983
26.670414 3.3460515 2.7508018
27.042847 3.3520794 2.7488933
27.151321 3.3948948 2.7484694
27.248081 3.3942285 2.7500961
27.354702 3.3922176 2.7547746
27.450888 3.3906536 2.7529666
27.553812 3.3904634 2.7517235
27.649353 3.3900311 2.750514
27.749973 3.390101 2.750556
27.849819 3.3891244 2.7493515
27.957012 3.3767593 2.7543936
28.066357 3.3607697 2.7376928
28.153332 3.3391662 2.7745831
28.2432 3.360599 2.7757995
28.885 3.3849998 2.7049999
28.968746 3.3850002 2.7075
29.076309 3.3583055 2.7464051
29.159073 3.3277183 2.7455831
29.24935 3.3316669 2.7412791
29.349344 3.3291583 2.751435
29.449738 3.3307731 2.7560315
29.547653 3.332711 2.7625897
29.64971 3.3316665 2.7709098
29.74404 3.3361535 2.7771156
29.846996 3.3343334 2.7816665
29.932995 3.352 2.75
30.063284 3.3747144 2.7284284
30.152363 3.3599179 2.7448361
30.25325 3.3748651 2.7428381
30.314411 3.3797059 2.7479413
30.459232 3.3596587 2.7536299
30.548916 3.3550029 2.7477851
