# .PCD v0.7 - Point Cloud Data file format
VERSION 0.7
FIELDS x y z
SIZE 4 4 4
TYPE F F F
COUNT 1 1 1
WIDTH 1664
HEIGHT 1
VIEWPOINT 0 0 0 1 0 0 0
POINTS 1664
DATA ascii
46.022861 56.471725 1.7053845
46.781845 57.011314 1.8
47.323128 57.68224 1.9499999
49.391418 59.361622 1.8499999
49.70689 59.91098 1.8538463
50.034882 60.867756 1.9150002
55.17609 66.038338 1.0576924
55.906902 66.533707 1.1928573
56.427132 67.198715 1.45
57.434757 67.511024 1.4499999
58.163536 68.748611 1.5508691
58.50832 69.102814 1.5590092
61.730431 72.124901 1.05
62.531818 72.643448 1.0833334
63.205257 73.276474 1.0928572
63.946033 74.057655 1.15
64.334946 74.988686 1.2333333
64.930092 75.678101 1.2750001
65.750839 76.22612 1.3928573
66.53875 77.048111 1.5500002
67.371574 77.75032 1.4555558
67.910042 78.476227 1.4249998
68.518661 79.270393 1.5710523
69.159782 79.912506 1.6633333
70.043343 80.649933 1.6687499
70.66748 81.297646 1.6833334
71.447563 82.02066 1.6763161
72.059639 82.671677 1.9115387
73.015198 83.621788 1.7545458
73.998734 84.888184 1.65
74.635124 85.524567 1.65
76.084702 87.32769 1.9499999
77.145363 88.105515 1.65
78.029236 88.070152 1.5
78.700996 89.236877 1.9499999
79.195969 89.979347 1.5125
80.115204 90.297539 1.9
80.893036 91.428917 1.55
81.388 91.499626 1.55
82.872925 93.408806 1.85
83.438606 93.550232 1.85
83.79216 95.035149 1.75
84.78212 95.318001 1.8
86.408455 96.520081 1.9499999
-2.3098831 9.2442446 1.17
-2.3418286 9.8539047 1.3500001
-1.8856173 10.658458 1.4833332
-0.45589685 11.311848 1.6921054
0.080732822 11.975161 1.5153542
0.7752018 12.706972 1.5444447
1.4393458 13.308805 1.4417357
2.1351972 14.072083 1.6257005
2.4355912 14.621398 1.9166666
3.9926291 16.495794 1.7553574
4.6214495 17.157442 1.7214285
5.4308424 17.493326 1.4910712
6.537425 18.35605 1.5921874
7.1065927 19.090061 1.5320518
7.7096424 19.661922 1.5423076
8.5146866 20.699963 1.5589885
9.2651834 21.290157 1.6911764
9.6270504 21.847519 1.2764705
43.749962 56.392666 1.5602565
44.337803 56.564857 1.6041665
44.988899 57.53236 1.6108694
45.590721 58.187321 1.6107144
46.341225 58.927723 1.5863638
47.068573 59.725777 1.5199999
47.70446 60.361668 1.6071428
48.467754 61.124962 1.6874999
49.30994 61.850319 1.7804348
49.836906 62.310268 1.8566669
54.545128 66.778069 1.0576924
55.081268 67.177505 1.1633331
55.703712 67.904022 1.2115383
56.766544 68.914635 1.3900001
57.401501 69.460663 1.5423729
57.799065 69.823517 1.5541235
58.194897 70.56926 1.15
62.083981 73.468399 1.05
62.225403 73.963371 1.05
63.498199 76.155403 1.05
64.747421 76.178978 1.3166666
65.100983 77.121788 1.3416667
65.713799 77.93103 1.65
66.165001 78.640381 1.4642857
67.16539 79.300804 1.4706897
68.036545 79.735947 1.4499999
68.655029 80.574821 1.6642858
69.371346 81.263214 1.7911767
69.923439 82.052673 1.8833336
70.665443 82.734329 1.8660003
71.5327 83.429764 1.7375001
72.378822 84.206787 1.7409093
74.104805 85.48922 1.65
74.157829 86.037216 1.725
76.933228 89.166168 1.9
79.160606 90.898575 1.35
83.155762 94.964439 1.75
-3.5402482 10.220051 1.7500001
-2.8375921 10.652431 1.6018517
-2.036469 11.257139 1.52
-1.4651914 11.951752 1.561628
-0.66853762 12.769707 1.4590911
0.052622795 13.449827 1.4313954
0.84246778 13.97243 1.3871429
1.4268403 14.624485 1.5392858
2.1213212 14.919953 1.9499999
3.8113093 16.963495 1.3825002
4.2960544 17.53726 1.5025178
4.8967085 18.356998 1.5026785
5.6632886 18.953976 1.4119837
6.3930745 19.843704 1.5132352
7.0681438 20.509602 1.52438
7.7947206 21.223732 1.4351062
8.4348507 21.885475 1.5117648
9.2730579 22.5338 1.55
9.4785957 23.220037 1.6785715
39.880802 53.386536 1.6899999
40.348244 53.675335 1.5177196
41.117767 54.404995 1.519173
41.706722 55.13839 1.4958876
42.415852 55.897186 1.4927452
43.069553 56.593552 1.4882778
43.666977 57.432514 1.4483144
44.382717 58.135941 1.4479165
45.034611 58.757339 1.4171755
46.123577 59.134335 1.3500001
46.860394 59.800446 1.3852943
47.635437 60.575489 1.4611109
48.380253 61.320305 1.5
49.1675 62.107552 1.6277777
49.616547 63.204548 1.5632651
50.062508 63.744156 1.5339024
50.765625 64.484756 1.5428146
51.58799 65.166115 1.5537914
52.276344 65.814461 1.5570091
52.980019 66.519966 1.5844185
53.65464 67.048477 1.5401102
54.458382 67.885963 1.092105
55.088047 68.554001 1.16875
55.683128 69.397926 1.2543477
56.694962 70.138695 1.4760273
57.082058 70.542473 1.5072815
58.336319 72.266319 1.05
59.11414 72.902718 1.15
60.174793 73.821953 1.25
62.013271 74.953323 1.25
62.508244 76.296822 1.05
63.87532 77.239632 1.3166667
64.498245 77.862564 1.3928572
65.145752 78.425209 1.3299999
65.875175 79.206848 1.4346154
66.589821 79.977707 1.5444442
67.185242 80.660667 1.4535714
67.853973 81.340858 1.4966667
68.4608 82.056526 1.5409092
69.048988 82.749176 1.6999999
69.968224 83.544662 1.8499999
70.753105 83.947708 1.5699999
71.509712 84.944733 1.6600001
71.594574 85.595284 1.6999999
73.468399 86.549873 1.65
73.986938 87.539825 1.75
74.953331 88.176224 1.9499999
77.003937 90.22683 1.9499999
-3.8890865 10.832876 1.41
-3.4595189 11.251837 1.4375
-2.8301516 11.734524 1.3987803
-2.0506096 12.488595 1.4269233
-0.93691587 13.27593 1.775
-0.50140095 14.392838 1.5136364
0.1080308 14.831564 1.3680556
0.70710754 15.167439 1.4500002
3.6239238 18.862074 1.1
4.4061646 18.932785 1.3125
4.8931804 20.081833 1.2400001
5.6215014 20.490028 1.3090909
6.4495602 21.228088 1.5473682
6.9573731 21.799686 1.4794117
7.9340992 22.476927 1.5935898
8.4852829 22.88669 1.15
39.203465 54.063873 1.6815786
39.457767 54.289032 1.4053671
42.591408 56.804253 1.4166667
43.274944 57.487785 1.15
44.579109 59.417175 1.4447371
47.446873 61.942558 1.9499999
48.976978 63.817055 1.4787039
49.247707 64.101463 1.318085
52.632301 67.499214 1.6479166
53.015575 67.855591 1.3804356
53.757793 68.555962 1.083333
54.455799 69.358604 1.1560606
55.189701 70.061569 1.2200001
55.968185 70.813148 1.4593959
56.376732 71.247025 1.5127659
59.609108 75.094749 1.25
60.811188 75.024033 1.25
61.164745 76.508957 1.05
61.80114 77.286774 1.05
62.649673 77.711037 1.55
63.69619 78.305008 1.39
64.36602 79.131683 1.3863636
65.03363 79.91317 1.4928572
65.855217 80.669098 1.3666667
66.593758 81.215149 1.5055555
67.19873 82.000832 1.4416666
67.841858 82.923431 1.5357144
68.66008 83.539619 1.5928571
69.16291 84.051422 1.5388889
70.162682 84.835144 1.675
70.862213 85.620537 1.7214286
71.417801 86.231682 1.675
71.629921 86.974136 1.7
73.89267 88.529778 1.75
76.93322 91.287483 1.9499999
-4.2779956 12.621858 1.15
-4.1719298 12.727923 1.15
-2.4041629 13.222898 1.05
-0.81317186 14.813889 1.9
-0.59002972 15.554029 1.4614757
-0.050506592 16.303864 1.5500001
0.48319054 16.958778 1.4666667
3.8969455 19.743994 1.9055557
4.6669064 20.612162 1.325
5.0204601 21.042522 1.3499999
5.6539717 22.031427 1.4683675
6.3594713 22.763229 1.5992066
6.741086 23.216675 1.3055557
38.501328 54.766014 1.6868418
38.757668 55.002266 1.4100002
43.875229 60.124973 1.4112406
48.271614 64.525551 1.4538463
48.561478 64.787712 1.2842106
51.953739 68.168816 1.5973681
52.249107 68.52475 1.4396551
53.04977 69.32811 1.1394736
53.755997 70.026665 1.164286
54.517944 70.630272 1.2166671
55.302063 71.419373 1.3499999
55.736336 71.863808 1.35
57.275654 73.963364 1.15
58.477741 75.236168 1.15
61.447594 78.06459 1.7
62.225403 78.700981 1.55
64.205307 79.832367 1.05
64.558861 80.539474 1.4
65.218819 81.340851 1.7833332
65.628365 81.997879 1.5375
66.621262 82.719719 1.5666666
67.303711 83.226471 1.6045455
67.967117 84.075005 1.7299999
68.554008 84.958878 1.75
69.956451 86.102051 1.6166667
70.622307 87.027176 1.675
71.400116 87.76963 1.75
72.054192 88.52977 1.85
73.821953 89.449005 1.75
73.751251 90.368248 1.85
-0.98994827 16.051325 1.85
2.8556242 20.930363 1.5884618
3.2829981 21.091986 1.3785716
4.5608377 22.097088 1.25
5.1775942 22.506947 1.3277777
5.7355061 23.378546 1.4653062
6.2265244 24.044621 1.4866195
6.7440319 24.792931 1.375
37.78553 55.481808 1.6692982
38.051826 55.714832 1.4054879
43.522423 60.705128 1.4736112
44.082985 61.306747 1.4604836
44.772305 61.996872 1.4492002
45.471725 62.705086 1.4634328
46.181118 63.418983 1.479787
46.897629 64.125153 1.4978873
47.564487 64.756714 1.4576924
48.075413 65.195251 1.25
51.252071 68.88205 1.4965118
51.563049 69.335899 1.371154
52.318851 70.021263 1.1550001
53.075775 70.656418 1.1639539
53.639355 71.504402 1.2225002
54.4571 72.116669 1.2616278
55.107933 72.798859 1.2968749
55.765472 73.463341 1.3357146
56.545555 74.362991 1.5662791
57.275658 75.306877 1.15
60.139442 77.958527 1.25
60.881901 79.054535 1.55
61.306168 79.054543 1.05
63.215355 80.822319 1.05
63.286064 81.175858 1.75
64.629562 82.0951 1.5166668
65.152832 82.929489 1.67
65.534668 83.481033 1.61
66.485718 84.05732 1.4749999
67.175148 84.852814 1.8
67.967102 85.658913 1.61
68.490372 86.267036 1.75
69.485031 86.856285 1.75
69.932861 87.398399 1.8833332
70.781395 88.388351 1.65
71.205658 89.166161 1.8
72.148468 89.708275 1.8833334
72.761299 90.792511 1.9499999
-5.0911689 14.495689 1.25
2.4748735 21.001072 1.45
3.3799706 22.485996 1.79
4.4194174 23.122391 1.175
5.0990286 24.049488 1.5555556
5.798275 24.415388 1.7928573
6.3639622 24.819447 1.05
37.084732 56.182606 1.665254
37.333836 56.412483 1.3945163
50.555988 69.572868 1.4803032
50.965073 70.010254 1.4066038
51.684582 70.715614 1.1290697
52.389408 71.352852 1.1663269
53.021011 72.055519 1.2047174
53.77462 72.744049 1.2719512
54.473747 73.500801 1.3041668
55.021755 74.210861 1.3500003
55.923672 75.001068 1.5728916
58.902 78.347435 1.4499999
60.245506 79.408096 1.05
62.013271 81.600121 1.75
62.861805 81.741547 1.05
64.323158 83.674316 1.65
65.195244 84.287125 1.65
65.725578 84.782104 1.8499999
66.432693 85.312439 1.8249999
67.17514 86.19632 1.9499999
67.528702 86.83271 1.9499999
68.730789 87.398399 1.85
69.060768 88.223358 1.8166666
70.757828 90.014702 1.8166666
71.771339 90.792511 1.9499999
2.0506096 21.920311 1.9499999
36.381809 56.885544 1.6716665
36.630199 57.117851 1.3804348
49.800835 70.322891 1.5822582
50.161808 70.548813 1.4999999
50.882881 71.459686 1.1833333
51.667995 72.171013 1.1630433
52.308243 72.837906 1.2458332
53.100357 73.596352 1.2642857
53.734245 74.193199 1.3166668
54.430252 75.086258 1.3660002
55.196259 75.696236 1.5808644
58.053482 78.418144 1.25
59.538399 79.549515 1.4499999
60.457634 81.175858 1.15
64.016747 84.310715 1.75
64.276016 84.923531 1.85
65.33667 85.489212 1.9499999
65.584167 86.090256 1.8499999
67.175148 87.893372 1.85
67.740837 88.388351 1.85
68.730789 89.119026 1.95
69.225769 89.661156 1.9499999
69.650032 90.651093 1.75
35.664349 57.602989 1.6796296
35.913116 57.83173 1.4003999
49.126236 70.999405 1.4916667
49.54924 71.378143 1.3670729
50.152203 72.200836 1.1129626
50.902565 72.902702 1.1564516
51.618813 73.555954 1.2047622
52.2817 74.228523 1.26875
53.089577 75.00705 1.3340002
53.7799 75.417358 1.3500003
54.53046 76.400848 1.5897056
56.497841 78.842407 1.25
60.386932 81.882973 1.5
63.745686 85.70134 1.8249999
64.169945 86.231674 1.925
65.053825 87.610535 1.65
65.478096 88.03479 1.65
66.361977 88.246918 1.85
68.942917 90.933937 1.9499999
34.969627 58.297714 1.662727
35.176613 58.553036 1.3749996
48.462078 71.665276 1.4857143
48.840546 72.045044 1.3919352
49.668671 72.627304 1.15
50.253784 73.523743 1.2282608
50.954124 74.203789 1.2566667
51.498596 74.790688 1.24
52.287838 75.606041 1.2807692
52.840172 76.592529 1.3681819
53.791271 77.111649 1.5638461
56.922104 80.044487 1.25
58.689873 81.812256 1.35
59.53841 82.377953 1.05
61.412235 84.817459 1.65
61.801144 85.347794 1.4499999
63.616051 86.974136 1.95
64.629562 87.469109 1.9499999
65.619507 88.459061 1.75
65.867004 89.272232 1.9
66.267685 89.908623 1.8166666
66.963013 90.438965 1.8749999
67.988319 90.827866 1.9499999
34.271095 58.996258 1.6617646
34.506809 59.231972 1.3563061
47.703194 72.416573 1.5937501
48.003326 72.718239 1.502174
48.916084 73.704102 1.3055556
49.484619 74.271912 1.1954545
50.244999 74.811905 1.25
51.066479 75.817123 1.4635135
51.743076 76.271423 1.5781554
52.484631 76.915939 1.6155554
53.123772 77.535454 1.5566666
56.356415 81.034439 1.25
57.063522 82.448647 1.35
58.336315 82.590073 1.05
58.689873 83.79216 1.85
61.164742 85.559929 1.9499999
62.083992 86.19632 1.4499999
62.013275 87.398399 1.85
62.861801 87.681236 1.85
64.205292 88.459061 1.4499999
64.700279 88.812607 1.55
64.983116 89.378296 1.7
65.690231 89.943985 1.9499999
66.32663 90.863228 1.9499999
3.9800034 29.809605 1.5214286
4.4121962 30.223114 1.4887098
5.1316948 30.939503 1.4511238
5.7339506 31.799519 1.496721
6.3882132 32.515797 1.5178571
7.1266756 33.177887 1.5095419
7.8194714 33.89106 1.5302918
8.5211697 34.605076 1.5698531
9.2166643 35.321556 1.5738807
9.9486609 36.006641 1.5789062
10.660765 36.732464 1.5782259
11.37157 37.420948 1.569697
12.102069 38.113033 1.54403
12.880462 38.80904 1.4751571
13.532901 39.503223 1.4839898
14.242074 40.19429 1.4813432
14.91422 40.931034 1.4885712
15.666553 41.713654 1.4585105
16.271782 42.458298 1.3833334
16.923429 43.200859 1.4428571
17.731367 43.844551 1.4425927
18.41909 44.610535 1.4917912
19.158413 45.180374 1.4926037
19.869686 45.89444 1.4892048
20.540848 46.616112 1.4854285
21.249172 47.283264 1.5182245
22.036469 47.962048 1.5020409
22.769642 48.655262 1.4794447
23.473957 49.357254 1.4719104
24.178871 50.065418 1.4783423
24.898399 50.78529 1.4749998
25.595396 51.482407 1.4715383
26.302555 52.19339 1.4792931
27.007998 52.899326 1.4846536
27.712502 53.605545 1.5028844
28.419086 54.310303 1.4892157
29.124702 55.039845 1.5061908
29.54896 55.641193 1.4860654
30.358456 56.59211 1.95
32.492279 58.920044 1.479412
33.355766 59.55801 1.5902779
33.832077 59.922619 1.3487952
46.955605 73.137161 1.576316
47.214539 73.557297 1.3785713
48.204491 74.226021 1.1214285
48.719673 75.160744 1.2166666
49.529621 75.705421 1.2136364
50.310646 76.420563 1.4599999
50.734917 76.93322 1.4187498
54.376518 80.468758 1.25
57.346371 83.580032 1.6833334
61.730423 88.388351 1.85
63.073929 89.166168 1.9499999
65.301315 91.747108 1.9
3.3941145 30.334881 1.65
5.2325907 32.173355 1.25
6.1871853 33.340088 1.9166667
6.5659933 33.72226 1.492857
7.3414364 34.357071 1.2911763
8.0913258 35.079227 1.2452381
8.8291979 35.77639 1.1772727
9.4996195 36.440376 1.2120689
10.213771 37.174171 1.2666665
10.907125 37.915058 1.2775
11.609582 38.568947 1.3657897
12.044389 38.985153 1.4833333
14.603624 41.603931 1.6394738
15.10501 42.489868 1.5378505
15.817586 42.887985 1.6083333
16.54258 43.550327 1.6473686
17.190559 44.194176 1.6981481
17.697548 45.256428 1.5443819
19.927158 47.495483 1.53125
20.219097 47.925201 1.4558823
28.60955 56.172573 1.6433336
28.75494 56.424904 1.2906249
29.839912 56.780678 1.9499999
32.338356 59.279125 1.6000001
32.837063 60.43029 1.6977271
33.091705 60.721199 1.3772727
45.970791 74.0606 1.65
46.475639 74.377243 1.270588
47.395672 74.96064 1.1775861
47.995579 75.654762 1.1539998
48.808983 76.360092 1.2026314
49.601864 76.966896 1.4404763
50.275307 77.357491 1.6833333
51.548096 78.488853 1.35
51.689514 79.76165 1.05
51.901649 79.690933 1.4499999
52.608749 80.680893 1.15
54.565079 81.835831 1.2166667
55.578598 83.226463 1.55
61.942558 88.883324 1.9499999
62.296112 89.236877 1.9499999
63.215351 90.438957 1.9499999
63.781048 90.863235 1.9499999
64.346725 91.994591 1.85
64.664932 92.454216 1.9499999
2.386488 31.342506 1.1499999
14.407558 43.365028 1.508904
14.672467 43.875977 1.05
15.662416 44.512371 1.0999999
17.014896 45.969341 1.5052239
19.273714 48.153973 1.5214286
19.822563 48.366104 1.3833332
27.94083 56.841293 1.757143
28.080002 57.094952 1.3648149
28.991383 57.346359 1.9499999
32.126205 61.141151 1.6961539
32.36158 61.314121 1.3288733
45.891239 74.246216 1.85
45.904617 74.878792 1.4067566
46.881191 75.519012 1.6166667
47.55294 76.120049 1.55
48.054981 76.975647 1.5300001
48.784225 77.944687 1.402174
49.271194 78.531273 1.5100001
64.13459 93.125961 1.9
1.5320654 32.149788 1.3166666
13.88623 43.91806 1.3976191
14.24822 44.461464 1.4760003
14.933719 45.158466 1.436726
15.64807 45.879311 1.4400994
16.263475 46.480099 1.4581965
18.667618 48.889366 1.5500001
18.954193 49.259296 1.2710525
27.250134 57.531975 1.725
27.421305 58.243946 1.482653
28.009823 59.051804 1.5703388
28.478729 59.520714 1.6750001
31.426468 61.840893 1.7437501
31.644409 62.014183 1.3707794
45.124729 75.521828 1.4179999
46.527634 77.003937 1.55
47.404442 77.965591 1.24
48.120308 78.569664 1.5119048
48.719666 78.957306 1.5187501
63.050354 93.149529 1.8500001
63.639618 93.408806 1.9499999
0.98995495 32.723331 1.4166666
26.516508 58.265602 1.5999999
27.13607 58.62925 1.4880954
27.883579 59.102905 1.4738095
28.367849 59.611244 1.4681818
29.575769 61.940453 1.4794117
30.446301 62.461098 1.6166668
30.979691 62.75573 1.3380953
44.399235 76.247322 1.5199999
45.32555 76.579666 1.5
45.946236 77.978172 1.1833333
46.718555 78.38279 1.27
47.536869 79.260246 1.5590911
47.877567 79.768082 1.4863638
62.29612 94.328049 1.9499999
0.27577591 33.453224 1.3099999
25.797619 58.984489 1.5500001
26.445799 59.043419 1.05
27.812868 60.410484 1.4166667
29.289936 62.044685 1.4222224
30.00738 63.260006 1.7552633
30.316029 63.469902 1.3433335
43.628494 76.508957 1.75
43.716881 76.972107 1.415
44.456818 77.842354 1.2214286
45.131096 78.38279 1.3624998
45.864708 79.328537 1.2187499
46.797997 79.886429 1.4617647
47.063019 80.549576 1.35
-0.50041008 34.196777 1.3884616
24.748743 60.033367 1.35
25.455851 59.962658 1.5
29.283066 63.984329 1.6999999
29.704918 64.179588 1.440909
43.243515 77.931023 1.2611111
43.749718 78.599976 1.1785713
44.528873 79.191246 1.1966665
45.172348 79.914856 1.1999999
45.987209 80.534424 1.4
46.633698 80.999084 1.225
-1.2177906 34.915359 1.4611113
24.701603 60.55191 1.4166667
42.744614 78.594917 1.05
43.178516 79.093109 1.1500001
43.927658 79.843239 1.1653845
44.72451 80.415726 1.275
45.32555 80.751595 1.75
-1.8879719 35.574547 1.5000001
24.088776 61.353298 1.3500001
-2.60215 36.274582 1.49
26.516508 64.88826 1.5451219
26.850782 65.246674 1.5409092
-3.3322372 36.972847 1.4999999
-4.0481834 37.688793 1.5250001
-4.8260021 38.448929 1.5124999
21.496046 64.452782 1.3749999
22.008703 65.018478 1.3375
22.457716 65.718506 1.1700001
-5.4730034 39.088863 1.53
20.117191 65.230598 1.9499999
21.955667 66.079132 1.15
23.537821 67.891098 1.71875
23.882534 68.218124 1.875
-6.0722752 39.695206 1.7125
-6.8766079 40.499542 1.6125
19.233311 66.255905 1.25
28.072147 75.801849 1.4499999
-7.5896091 41.20076 1.6166666
-8.3014336 41.945576 1.6099999
17.536253 67.952965 1.25
20.675806 70.866241 1.7700001
20.859657 71.134949 1.8
53.952255 103.94469 1.55
56.07357 106.49028 1.85
52.820892 104.51039 1.55
55.083633 106.70242 1.75
26.162958 79.549515 1.85
46.951897 99.348495 1.05
51.123825 104.6518 1.55
53.740124 106.98527 1.75
43.946701 99.808128 1.05
30.759151 87.398399 1.05
43.48708 101.25771 1.05
43.13353 102.31837 1.15
42.779976 103.37901 1.15
28.072144 89.519722 1.05
28.637833 90.22683 1.05
29.34494 90.933929 1.15
29.981335 91.711754 1.15
30.971283 92.772408 1.25
42.355709 104.51039 1.25
28.425705 91.428909 1.65
43.062817 106.63171 1.75
43.557781 107.12669 1.85
27.082199 91.3582 1.35
42.002148 105.71246 1.25
41.577888 106.98526 1.25
27.223621 94.045212 1.55
41.153625 108.25806 1.35
41.577885 109.248 1.85
42.709255 109.248 1.85
40.729366 109.67227 1.35
23.688087 94.18663 1.4499999
24.465904 94.964447 1.55
25.31443 95.812973 1.55
26.092251 96.59079 1.65
26.799355 97.439323 1.75
44.547737 113.9149 1.9499999
46.386211 116.17764 1.75
22.344582 93.974503 1.4499999
23.098824 94.63446 1.3833332
23.900223 95.483002 1.4833333
24.701607 96.284386 1.5833334
25.561916 96.908989 1.65
26.021542 97.651459 1.65
40.163673 111.58145 1.6999999
26.139385 98.994949 1.3833334
26.516514 99.843475 1.25
44.618446 117.52115 1.75
21.142498 94.893738 1.35
21.991028 95.671555 1.4
22.768848 96.520081 1.5
23.58202 97.333252 1.55
24.11235 98.005005 1.55
24.701603 98.688538 1.5500001
33.021893 107.19739 1.4499999
33.799713 107.69237 1.35
20.011131 95.600845 1.4499999
20.859657 96.449371 1.55
21.637474 97.227188 1.55
22.698135 98.358559 1.4
23.263821 98.853531 1.75
24.041637 99.631348 1.75
21.28392 98.287849 1.15
23.546661 100.83344 1.15
31.183418 108.47018 1.9499999
19.304028 97.934296 1.5
19.586864 97.863586 1.05
20.187912 98.818176 1.55
21.107147 99.737411 1.65
21.955669 100.65665 1.75
22.698135 101.54054 1.75
31.324841 109.8844 1.55
31.819817 110.66222 1.4499999
18.314072 98.429268 1.4499999
19.162605 99.277802 1.4499999
20.081841 100.19704 1.55
20.93037 101.04556 1.65
21.708187 101.9648 1.65
30.052048 109.60155 1.65
28.637829 110.16724 1.75
17.324123 99.41922 1.55
18.243366 100.33846 1.65
19.162601 101.25769 1.75
20.187904 102.42442 1.4
20.93037 103.16689 1.85
21.213215 103.73257 1.15
28.001438 110.37937 1.05
28.425701 111.36932 1.15
29.415649 112.78354 1.65
29.769203 113.98561 1.55
27.435753 113.06638 1.75
13.930012 101.9648 1.55
14.919964 102.95476 1.65
15.839199 103.87399 1.75
16.687733 104.86394 1.85
17.606972 105.78318 1.85
25.950832 113.70277 1.85
27.435757 115.89481 1.65
28.920673 116.67262 1.05
26.445805 116.88477 1.15
27.435753 117.59186 1.65
12.303665 103.30831 1.55
13.2229 104.22755 1.65
14.142143 105.14679 1.75
15.061378 106.06602 1.75
15.980618 106.98526 1.85
10.111633 103.37902 1.65
11.030869 104.29826 1.75
11.879402 105.14679 1.85
12.798637 106.06602 1.85
13.71788 106.98526 1.9499999
24.53661 116.95547 1.85
12.798637 107.1974 1.05
23.051685 117.59187 1.9499999
24.112354 117.66257 1.15
25.314434 119.28893 1.75
26.233669 120.491 1.25
29.839901 124.23867 1.55
32.668346 126.21857 1.65
35.001789 129.68338 1.85
35.779613 130.17838 1.9499999
9.9702072 105.35892 1.55
10.960159 106.34887 1.65
11.950111 107.33882 1.75
12.86935 108.39948 1.85
13.859299 109.38942 1.9499999
24.960873 121.48096 1.75
27.789299 124.40366 1.5166667
28.425694 124.94577 1.55
30.688435 127.20852 1.65
30.971279 127.49136 1.9499999
32.314785 128.97629 1.9499999
18.950466 117.45045 1.05
26.799351 124.4508 1.4499999
28.92067 126.85497 1.85
7.1417809 107.33882 1.55
8.1317329 108.32877 1.55
9.0509758 109.38943 1.65
10.111633 110.45009 1.75
11.101582 111.44003 1.85
22.980976 122.89516 1.9499999
24.324482 123.53156 1.25
24.960876 125.29933 1.35
26.976135 126.46606 1.9
27.753948 127.17316 1.85
17.536247 118.29898 1.05
4.5254898 107.69237 1.75
5.5154381 108.68233 1.85
6.4346733 109.60156 1.9499999
7.4246254 110.59151 1.9499999
23.263817 125.58218 1.35
24.960884 126.85497 1.75
21.425339 125.86502 1.25
22.486008 126.50142 1.4
23.193108 127.7742 1.85
10.818741 117.804 1.35
19.657574 126.07715 1.25
22.273869 128.69345 1.4499999
10.818737 119.50105 1.35
17.819088 126.35999 1.15
21.001072 129.11771 1.4499999
10.818737 121.05669 1.4499999
20.293972 130.24907 1.4499999
21.213207 130.88547 1.75
15.839199 126.64284 1.05
19.021175 130.10765 1.4499999
10.960163 122.75375 1.55
13.930008 126.85497 1.05
17.642323 130.00159 1.65
11.101582 124.30938 1.65
16.192757 130.95618 1.9499999
13.505741 137.88583 1.75
15.06139 138.16867 1.55
4.1719322 129.40054 1.05
11.384422 140.14857 1.55
7.778183 141.91635 1.4499999
-0.14141846 134.27959 1.15
5.9397049 141.91634 1.4499999
4.0305176 141.84563 1.35
2.1920471 141.70421 1.25
163.69522 -93.05526 2.45
163.8013 -93.019905 2.3499999
138.53635 -116.71504 2.3500001
145.08064 -110.18492 2.5749998
145.68756 -109.50728 2.5166669
154.78568 -100.23239 2.5749998
155.57527 -99.737411 2.6000001
156.21503 -99 2.4714289
156.72314 -98.556549 2.4300001
162.99823 -92.358261 2.5357144
163.29622 -92.090569 2.5928571
163.69522 -91.428909 2.7
137.63834 -116.1423 2.3499999
138.92291 -115.18771 2.5500002
139.42732 -114.66444 2.4100001
140.06778 -114.07655 2.5785718
140.77213 -113.32996 2.5318182
141.57793 -112.55625 2.5571432
142.34846 -111.77789 2.6166668
142.97701 -111.18752 2.4642859
143.6841 -110.49723 2.5333335
144.17024 -109.99931 2.55
153.86644 -99.489929 2.4000001
156.59764 -97.607262 2.4875002
157.13892 -97.065979 2.506
157.89977 -96.30513 2.4579997
158.57639 -95.628517 2.6282609
159.33325 -94.871643 2.5062499
160.08899 -94.115936 2.6700001
160.79166 -93.413239 2.5812502
161.42416 -92.780746 2.5735295
162.09244 -92.112457 2.492424
162.54028 -91.758911 2.0833335
163.27097 -91.075363 2.8499999
137.00194 -115.29377 2.4000001
153.35379 -98.90657 2.75
162.35172 -90.014702 2.8499999
136.4716 -115.1877 2.3499999
152.66435 -98.287849 2.6166668
161.27338 -89.431335 2.8
161.55621 -89.201538 2.8375001
152.09868 -97.621162 2.5642858
160.40718 -88.989403 2.8
161.22035 -88.529785 2.8499999
135.01027 -113.1371 2.55
151.39157 -96.979713 2.6499999
159.98291 -88.305878 2.8166666
160.39539 -87.940521 2.8333335
134.47403 -112.83657 2.3499999
142.85913 -103.42616 2.5500002
143.34822 -102.99011 2.75
143.98265 -102.3655 2.727778
144.73061 -101.61124 2.7500002
145.40944 -101.04557 2.6500001
146.13541 -100.2599 2.7166669
146.81305 -99.542961 2.6749997
147.50247 -98.877121 2.5833335
148.2803 -98.099297 2.5500002
148.95795 -97.386299 2.5999999
149.80057 -96.602585 2.6000001
150.54303 -96.131165 2.6500001
159.45258 -87.539825 2.95
159.3642 -87.133255 2.7249999
133.57246 -111.95859 2.6166668
158.79263 -86.785583 2.8833332
158.88689 -86.691292 2.8499999
132.72394 -111.11006 2.6166666
157.72015 -85.736702 2.9000001
157.94409 -85.70134 2.7833335
170.28548 -73.114853 2.3599999
132.4411 -110.73293 2.75
157.11913 -84.782112 2.8499999
170.06372 -72.663223 2.4822583
170.14755 -72.49614 2.1750002
131.82239 -109.61924 2.55
156.52988 -84.899963 2.8166666
156.93915 -84.48642 2.8500004
169.07632 -71.877419 2.4300001
169.67027 -72.018829 2.1500001
155.69608 -83.960098 2.8125
156.04079 -83.509315 2.8500001
168.70312 -71.303101 2.4566667
168.70154 -71.05011 2.24
153.44217 -84.251778 2.875
153.83951 -83.832588 2.8023813
154.50285 -83.191139 2.8500001
168.00858 -70.577118 2.6833334
168.17358 -70.522141 2.1500001
130.83833 -106.11317 2.1833334
153.17952 -84.034592 2.7785716
153.72502 -83.79216 2.8277779
154.51372 -83.003464 2.8653851
154.78568 -82.590088 2.8499999
167.3385 -70.01033 2.4642856
167.37218 -69.720734 2.1500001
130.28444 -105.465 2.5
152.17949 -83.155769 2.8214288
166.08928 -69.271225 2.4464288
129.18842 -104.51039 2.25
151.52119 -82.436874 2.8166671
165.47058 -68.667679 2.4607141
150.8907 -81.782806 2.8000002
164.50839 -67.928787 2.5026317
150.20969 -81.084946 2.8571429
163.92609 -67.348312 2.4969382
149.50595 -80.39019 2.8388891
163.16962 -66.578804 2.5216668
126.14784 -102.45978 2.95
148.899 -79.708618 2.875
149.31213 -79.326889 2.8499997
150.02742 -78.644997 2.8625
150.3309 -78.1353 2.9000001
162.46448 -65.853729 2.5203125
149.21133 -77.534271 2.9000001
149.66422 -77.246384 2.9071431
161.88345 -65.111557 2.4987805
123.88511 -101.75267 2.75
148.55431 -76.959747 2.9250002
148.9874 -76.367538 2.8999999
161.17815 -64.338036 2.5149126
123.07195 -101.22235 2.75
148.16714 -76.339241 2.8700001
148.29208 -75.955063 2.9166667
160.49686 -63.644737 2.554348
122.32947 -100.6213 2.45
147.40147 -75.367493 2.9500003
147.43176 -75.165451 2.8000002
159.8022 -62.934483 2.4819443
121.69307 -99.843483 2.2
147.07822 -74.882614 2.8499999
159.48398 -62.230595 2.5450616
159.46059 -61.809097 2.4783018
129.49954 -90.038277 2.55
130.06012 -89.738724 2.5442307
130.73819 -89.042458 2.5638888
131.47003 -88.327095 2.5733333
132.16873 -87.623627 2.4870372
132.89156 -86.895576 2.5018518
133.60783 -86.214005 2.4916668
134.29372 -85.489212 2.4366667
135.02525 -84.737106 2.4136364
135.68495 -84.154549 2.4000001
136.31606 -83.495178 2.45
136.98425 -82.466331 2.6875
145.84077 -73.786598 2.9000001
146.15897 -73.963371 2.8499999
158.4343 -61.128822 2.5423071
158.75859 -61.107124 2.5203702
128.90556 -89.564987 2.5020001
136.45813 -81.940208 2.5738094
144.74477 -73.114853 2.95
145.23975 -73.044144 2.95
158.01311 -60.51321 2.6571426
158.08664 -60.435162 2.4976194
128.25084 -88.875465 2.4870372
135.78571 -81.274857 2.5900002
144.42656 -72.796646 2.95
144.93332 -72.360596 2.9500003
156.96667 -59.645218 2.5455556
157.48132 -59.324848 2.5040812
158.14375 -58.557766 2.4858491
158.83191 -57.901585 2.4574075
159.87685 -57.134232 2.3499999
127.53555 -88.140877 2.515625
135.0731 -80.570892 2.5277779
143.6841 -72.054184 2.95
144.10835 -71.488495 2.8499999
115.51297 -98.754547 2.1700001
126.82051 -87.431061 2.5089743
134.43933 -79.931885 2.542592
155.48671 -58.202972 2.5271423
155.63422 -57.982777 2.5500002
114.64558 -97.840012 2.2166667
126.0952 -86.686348 2.531395
133.73276 -79.214828 2.5033333
142.90628 -70.56926 2.95
155.31781 -57.917381 2.5775001
155.24655 -57.595161 2.4837348
112.21784 -99.065659 2.8499999
114.26846 -97.439316 2.25
116.51707 -94.356354 2.3833332
117.11456 -93.772964 2.4199998
117.99255 -92.843124 2.5388889
118.50323 -92.356003 2.5222223
119.28893 -91.584488 2.51
119.89268 -90.972031 2.4807694
120.77384 -90.108986 2.3500001
121.1981 -89.731857 2.3499999
123.10728 -87.82267 2.75
124.16795 -86.667732 2.4166667
125.34479 -86.110466 2.5821431
125.29933 -85.630646 2.5999999
132.91251 -78.135307 2.4000001
133.43387 -77.462151 2.5699999
134.123 -76.76149 2.6357145
134.80104 -76.140648 2.6708333
135.51759 -75.362663 2.6903508
136.20853 -74.76944 2.7260001
136.90329 -73.981964 2.7684212
137.67163 -73.29866 2.8214281
138.36769 -72.536064 2.8314815
139.03799 -71.891968 2.8911765
139.70662 -71.294044 2.95
140.25464 -70.675323 2.95
141.35065 -69.579315 2.8499999
154.23473 -56.930958 2.6083333
154.66002 -57.008541 2.5300002
116.19178 -94.45533 2.4300001
117.62399 -93.023102 2.45
119.12096 -91.526146 2.5250001
120.5617 -90.085411 2.55
123.53155 -87.115562 2.5
123.74368 -86.903427 2.45
125.01649 -85.630646 2.5666666
125.1579 -85.48922 2.55
132.51181 -78.135307 2.3499999
134.04976 -76.597336 2.7333333
135.48166 -75.165459 2.72
136.96658 -73.680534 2.75
153.90309 -56.529446 2.557143
153.81604 -56.161106 2.4975002
104.6518 -104.15683 2.8499999
110.49723 -97.840027 2.9166667
110.83899 -97.898949 2.95
124.07367 -84.640701 2.8166666
124.35357 -83.848145 2.6708333
124.66293 -83.580032 2.95
132.08755 -76.155411 2.5999999
132.86536 -75.141876 2.3166666
133.40105 -74.750748 2.5008478
137.81511 -70.145004 2.5999999
153.01149 -55.565735 2.7136364
153.19131 -55.537949 2.4938357
217.93033 8.9802551 2.6500001
103.80328 -103.26117 2.8166666
108.01057 -98.535339 2.8499999
108.68232 -97.863586 2.95
110.08475 -97.026848 2.8666666
112.00571 -95.247299 2.25
123.73308 -83.583557 2.7550001
124.34473 -82.660789 2.2250001
124.6158 -81.930122 2.0833335
129.54196 -77.428207 2.3499999
131.41075 -75.428108 2.6642854
132.36909 -74.949425 2.5000005
132.97484 -74.611595 2.5523808
136.52818 -70.187424 2.2600002
136.99452 -69.788132 2.6127901
139.21606 -67.851318 2.1999998
152.46381 -55.139278 2.5483603
152.3858 -54.725788 2.4818182
163.97807 -43.557785 2.45
90.099548 -116.05038 2.6400003
90.474312 -115.64732 2.5
91.490776 -114.5248 2.5875001
92.029945 -114.09169 2.45
93.017181 -113.02831 2.4423079
93.585587 -112.53605 2.425
94.422318 -111.55788 2.5722225
95.004837 -111.15719 2.3642857
95.848328 -110.06118 2.55
96.183151 -109.93015 2.4147058
97.580734 -108.551 2.4142857
98.287842 -107.83379 2.8499999
99.056229 -107.0654 2.5100002
99.737411 -106.45493 2.5
100.55501 -105.53127 2.55
101.25769 -105.00537 2.05
101.97424 -104.13799 2.6299999
103.33187 -102.64835 2.8166666
106.91454 -99.489929 2.95
107.76307 -98.641403 2.9000001
108.39947 -98.005005 2.8499999
111.2279 -94.363403 2.25
114.72807 -90.898582 2.45
115.18769 -90.745377 2.3499999
123.16229 -82.613647 2.6777778
123.7632 -81.77327 2.4568965
124.20161 -81.337479 2.3904767
128.05704 -77.216064 2.75
128.5137 -76.841873 2.5416667
128.90556 -76.367531 2.4666667
130.31979 -75.236176 2.25
130.76865 -74.842651 2.6326089
131.63158 -74.294968 2.3706896
132.15826 -74.057663 2.3499999
135.87057 -69.673599 2.0666666
136.76651 -69.33712 2.6627655
137.0979 -68.579262 2.6928573
137.81773 -67.486816 2.2796297
138.47192 -67.132706 2.4099998
139.08791 -66.821602 2.3
151.29901 -54.393051 2.5509346
105.90691 -97.951965 2.075
106.53741 -97.321465 2.0833335
107.19738 -96.661499 2.0833335
107.85146 -96.007423 2.0999999
108.5611 -95.318001 2.1357145
109.44598 -94.441185 2.2499998
110.44263 -93.788422 2.2394736
113.9856 -90.778374 2.3299999
114.19774 -89.555077 2.4250002
115.16413 -88.977615 2.0833335
121.51359 -82.323563 2.3500001
122.23444 -81.823296 2.4156249
123.00605 -81.341385 2.3795457
123.60471 -80.858894 2.1775863
127.22028 -76.682358 2.1928573
127.9414 -76.424255 2.4104168
128.70522 -75.584671 2.2904766
129.17143 -74.885445 2.3699999
130.19916 -74.273254 2.4808819
130.83983 -73.525421 2.6129034
131.1683 -72.857712 2.3999999
135.79828 -68.452209 2.4455218
136.26025 -67.766197 2.4934781
137.22861 -67.185562 2.4622955
137.61432 -66.610703 2.5142853
150.63855 -53.721622 2.5385966
218.42529 13.859291 2.8499999
113.70277 -89.731865 2.25
114.26846 -88.954041 2.3
114.37453 -88.706558 2.4666667
118.86464 -83.580025 2.75
119.41875 -83.364426 2.5237706
120.08166 -82.678436 2.5423076
121.01859 -81.842163 2.6153841
121.62942 -81.352615 2.4462495
122.42622 -80.766472 2.6447372
123.0248 -80.386261 2.1500001
127.12012 -76.455925 2.375
127.31458 -75.660431 2.5999999
127.994 -74.813614 2.4343374
128.7413 -74.207176 2.4531252
129.25107 -73.65963 2.4022725
129.87932 -72.936592 2.3270836
135.50523 -67.913689 2.5833333
135.81476 -67.267563 2.3938603
136.40288 -66.890335 2.3583338
137.36435 -65.946564 2.1750002
149.80278 -53.113705 2.4977877
209.37433 7.0710602 2.05
213.61697 11.030861 2.6500001
119.18677 -82.912201 2.8944447
119.74854 -82.316078 2.9000001
120.47868 -81.292618 2.5119045
120.98206 -80.893051 2.3027775
121.57994 -80.383911 2.3700001
127.16137 -74.906189 2.6166668
127.52518 -74.424545 2.5152183
128.06369 -73.753464 2.7187498
128.66161 -73.118385 2.7099998
129.60825 -72.226532 2.1875
135.23416 -66.927658 2.55
149.09673 -52.427429 2.4809086
148.38162 -51.710457 2.479661
147.67697 -50.988499 2.46508
159.59401 -39.173721 2.75
214.32407 15.556343 2.75
147.08798 -50.263588 2.5082784
213.68768 16.051331 2.8499999
146.39792 -49.462807 2.5231481
205.41452 9.3338089 2.05
145.7027 -48.758453 2.5
144.98903 -48.039761 2.4883931
210.50571 17.111984 2.75
144.66525 -47.48666 2.5
144.63361 -46.939575 2.4301586
143.57803 -46.27306 2.4766667
143.9888 -46.289909 2.4482298
201.80827 11.384415 2.05
142.83557 -45.32555 2.05
143.24391 -45.542339 2.4471014
207.21765 18.278709 2.7
142.12347 -44.786694 2.457042
142.60426 -44.62516 2.4776046
143.29082 -43.59758 2.4899995
144.01274 -42.880741 2.5240738
144.76834 -42.233135 2.47
145.37888 -41.605259 2.595161
146.0611 -40.827271 2.4653847
146.76276 -40.136486 2.5423081
147.72641 -39.279789 2.4666667
148.5101 -38.378216 2.625
148.79294 -38.095371 2.4000001
150.48648 -36.543282 2.53
151.26782 -35.761929 2.5
151.85118 -35.107857 2.3000002
152.629 -34.188622 2.5
105.2882 -80.044495 2.05
105.87746 -79.455254 2.8499999
106.36654 -78.966156 2.675
107.05598 -78.276741 2.6500001
107.7395 -77.593193 2.6333332
108.49376 -76.838959 2.5166669
198.48489 13.152184 2.05
204.70743 18.950455 2.6500001
103.73256 -81.458702 2.05
105.20334 -79.987923 2.53
105.65058 -79.540665 2.4875
106.44608 -78.745171 2.45
107.06427 -78.126976 2.4264703
107.72328 -77.467964 2.34375
108.21774 -76.421059 2.4771025
140.66434 -43.362289 2.4647059
141.24458 -42.77153 2.507143
141.85861 -42.107609 2.5176928
142.54535 -41.436424 2.536207
143.09091 -40.921848 2.3777778
143.95886 -40.033474 2.4840908
144.63452 -39.358799 2.4823534
145.27902 -38.712788 2.3944445
146.19826 -37.798779 2.5500002
146.88023 -37.094833 2.5000002
147.46713 -36.592785 2.4166665
148.3687 -35.620514 2.5
149.05812 -35.001785 2.3500001
149.74754 -34.312359 2.5249999
150.04807 -33.94112 2.25
151.25015 -32.904045 2.8500001
92.913826 -90.156113 2.05
93.314514 -89.755424 2.4833333
94.16642 -88.943939 2.6071429
94.858376 -88.282288 2.6500001
95.270844 -87.799095 2.75
96.013321 -86.915215 2.8166666
107.65951 -75.751328 2.4875
108.23573 -74.945877 2.4631577
108.92885 -74.251953 2.4364867
109.60614 -73.577522 2.4021742
110.32241 -72.87326 2.4333334
110.89491 -72.023315 2.4281821
111.46024 -71.044037 2.2785716
112.09999 -70.404274 2.5277779
112.8071 -69.697166 2.5333333
113.49065 -69.013641 2.5583334
114.15532 -68.348946 2.45
122.50262 -60.347961 2.5173466
122.54161 -60.245522 2.1166668
123.53156 -59.679817 2.05
124.23866 -58.831284 2.05
126.45192 -56.052376 2.1899998
126.98184 -55.568207 2.2176473
127.6749 -54.851074 2.2884617
128.37714 -54.1329 2.4444444
129.08975 -53.442337 2.4249997
129.54985 -52.954456 2.4722223
140.57524 -43.201782 2.5155175
140.41743 -42.711311 2.4556339
143.38358 -40.322762 2.4499998
143.58981 -40.121227 2.636667
146.24738 -37.494339 2.7750001
148.84598 -34.931076 2.8499999
203.71747 19.940414 2.6500001
110.57822 -71.598969 2.4937501
111.33395 -70.958168 2.3857143
112.02431 -70.338509 2.3552635
112.75209 -69.610725 2.3944442
113.41991 -68.942902 2.3450003
114.02913 -68.137901 2.4269235
114.19452 -67.448326 2.3522727
121.94054 -59.785904 2.5462501
121.98206 -59.685974 2.1326087
125.76711 -55.747223 2.2423077
126.71355 -55.649319 2.4000001
127.85503 -54.507843 2.6500001
128.01462 -54.348232 2.6500001
129.07962 -53.283207 2.773077
129.27768 -52.482391 2.4368851
139.25092 -41.890194 2.5305555
139.73149 -42.01857 2.4753623
202.02042 19.798981 2.6500001
109.8844 -70.922821 2.3000002
110.08475 -70.203934 2.4333334
113.67921 -67.080872 2.8833332
113.51478 -66.775009 2.4280488
121.23756 -59.082924 2.5590911
121.30001 -59.003895 2.1852942
125.16434 -55.16721 2.2954545
128.54376 -51.756672 2.4733331
139.09698 -41.753765 2.4987178
138.97246 -41.257336 2.4695485
195.44432 14.919945 2.05
202.37398 22.415283 2.95
204.07101 23.263802 2.95
108.87677 -69.915192 2.425
109.38941 -69.526276 2.4875
112.78354 -66.185204 2.9500003
112.81969 -66.076782 2.3700004
120.58683 -58.432175 2.6411111
120.61136 -58.280487 2.3324566
123.8144 -54.730076 2.05
124.39186 -54.411869 2.5166667
127.84381 -51.048637 2.4388895
137.83084 -40.430801 2.4611111
138.30954 -40.591774 2.4828863
193.81798 14.990662 2.05
199.54553 20.718224 2.6500001
200.67691 21.142487 2.6500001
93.125961 -83.947716 2.8699999
108.09895 -69.137375 2.4749999
108.67222 -68.740891 2.3642857
112.14714 -65.548813 2.8499999
112.11325 -65.364639 2.3875003
119.80215 -57.647503 2.6344824
119.90574 -57.609619 2.2670214
123.24871 -54.164387 2.4166667
123.67297 -53.704765 2.5250001
127.15413 -50.352501 2.4500003
137.65826 -40.316151 2.48125
137.56812 -39.848225 2.4893939
193.18158 16.192734 2.05
201.31332 24.183052 2.95
92.610802 -83.401581 2.7119048
107.46255 -68.500977 2.6500001
108.04593 -68.141541 2.4666667
111.28093 -64.682602 2.1375
111.41312 -64.673355 2.5071428
119.1275 -56.972851 2.666981
119.19211 -56.895973 2.2739129
122.5416 -53.457279 2.3166666
122.82445 -52.891594 2.6500001
126.44342 -49.650463 2.4204919
136.59091 -39.534054 2.4589167
137.17416 -39.458836 2.4596775
192.54518 16.546295 2.05
197.07068 21.49604 2.55
197.77779 22.344566 2.6500001
199.82838 23.263802 2.95
91.923859 -82.707909 2.6277781
99.595985 -75.483658 2.0999999
106.69357 -67.696648 2.3874998
107.41836 -67.484512 2.3874998
110.67906 -63.932568 2.4285715
118.40501 -56.250359 2.7477272
118.4764 -56.180267 2.3118181
121.76379 -52.679462 2.5999999
122.32947 -52.30233 2.5833335
125.7354 -48.91214 2.4000003
135.82152 -38.830475 2.4348278
91.221474 -81.986664 2.6211114
97.863579 -75.589722 2.05
98.409073 -75.04425 2.0785713
98.971352 -73.881927 2.4560604
99.464592 -73.289352 2.5086958
100.16785 -72.5784 2.4923911
100.8644 -71.881882 2.4875004
101.58461 -71.158813 2.5163264
102.14639 -70.630234 2.5147059
105.90692 -66.874634 2.25
106.54684 -66.623604 2.51
109.97632 -63.228058 2.4419997
117.7103 -55.555634 2.7575004
117.74174 -55.44561 2.3679104
121.03901 -52.060741 2.8250003
125.0071 -48.188881 2.4271083
135.05655 -38.239021 2.4816091
194.87863 22.273857 2.55
197.42422 23.970909 2.8499999
198.69702 25.10228 2.8499999
90.525223 -81.288506 2.5245759
105.74075 -65.789215 2.3099999
109.27698 -62.527931 2.4713116
116.9937 -54.839031 2.7716217
117.05134 -54.755192 2.3986843
120.29593 -51.216496 2.5086207
120.58528 -50.652424 2.6166668
124.30475 -47.484158 2.4730773
134.28746 -37.549725 2.5175858
189.92889 18.031212 2.05
195.23219 23.475945 2.55
86.597023 -83.980721 2.6388886
87.047562 -83.550102 2.6230769
87.789642 -82.821053 2.4899998
88.504219 -82.100983 2.4749999
89.225441 -81.390244 2.4338708
89.908615 -80.851997 2.4979999
101.48866 -69.164459 2.5766668
101.93954 -68.702293 2.5243118
102.66839 -67.991058 2.5289915
103.37168 -67.288956 2.5378256
104.06644 -66.596596 2.5269229
104.65881 -66.013237 2.5302472
105.55391 -65.124596 2.5276697
106.18124 -64.482025 2.4450622
106.91882 -63.783161 2.3015158
107.63901 -63.056633 2.4068627
108.33279 -62.372826 2.4577463
108.78567 -62.035049 2.4230771
116.52478 -54.370087 2.7590911
116.80106 -53.925964 2.4766266
117.52943 -53.177788 2.4724801
118.21985 -52.481087 2.5186567
118.94284 -51.753338 2.5229332
119.64255 -51.076443 2.4801366
120.49179 -50.2388 2.4939563
121.04887 -49.647312 2.4959629
121.76681 -48.933323 2.5010488
122.4705 -48.229465 2.4768457
123.17903 -47.522945 2.4765308
123.73404 -47.047234 2.4545453
133.58029 -36.839741 2.5293102
192.75732 22.980965 2.45
195.16148 24.678024 2.8499999
196.22214 25.880104 2.8499999
132.86234 -36.114216 2.5366199
132.25839 -35.375309 2.4899998
187.52472 19.445435 2.05
190.63599 23.688072 2.45
192.68661 24.465897 2.55
192.96945 25.455841 2.75
193.9594 26.728638 2.75
131.58682 -34.579872 2.4795306
143.22449 -22.73349 2.7
130.88455 -33.875202 2.4912159
185.19128 20.788933 2.05
188.79752 24.395172 2.45
190.42387 25.455841 2.55
190.91885 26.092239 2.75
191.69667 27.435738 2.75
130.18318 -33.175179 2.4861119
141.84563 -21.425339 2.45
129.82822 -32.632496 2.5246031
129.8098 -32.073433 2.5406251
140.60315 -21.031384 2.5642858
186.88834 25.031578 2.3499999
188.23183 26.375076 2.55
189.00964 26.72863 2.75
189.64606 28.213554 2.75
128.78311 -31.408504 2.5485916
129.13139 -31.400681 2.5197845
183.06995 22.061729 2.05
128.41771 -30.674187 2.5442033
185.12056 25.667969 2.3499999
186.18123 27.294327 2.45
187.10046 27.365036 2.6500001
187.73686 28.84996 2.6500001
127.31192 -29.915863 2.5350747
127.74537 -29.772945 2.527885
128.42702 -28.762733 2.4842463
129.12312 -28.066669 2.5089741
129.88492 -27.375641 2.385
130.50731 -26.7686 2.5978262
131.34509 -25.844765 2.5250001
132.04514 -25.144714 2.55
132.97144 -24.359825 2.6166668
133.50177 -23.688084 2.6500001
134.70386 -22.486 2.5999999
135.62308 -21.566761 2.75
136.47162 -20.576813 2.1500001
137.17873 -20.180824 2.3700001
137.7287 -19.586864 2.4833333
137.98012 -19.068314 2.4833336
181.09006 23.1931 2.05
183.3528 26.304359 2.3499999
185.40341 27.930717 2.6500001
184.27203 28.072144 2.45
185.82767 29.486343 2.6500001
103.09617 -51.123825 2.0833335
103.65099 -50.569031 2.1346154
104.43425 -49.785778 2.1115384
105.04781 -49.179291 2.125
105.76864 -48.455555 2.2029412
106.31282 -47.912247 2.4899998
110.27332 -43.974998 2.5
110.71521 -43.535027 2.5166664
111.43672 -42.825436 2.5706894
112.1412 -42.122478 2.5785716
112.82686 -41.434532 2.6259999
113.60475 -40.663162 2.562844
113.92374 -40.313931 2.3124998
125.94659 -28.442013 2.6692309
126.37465 -28.221958 2.5004003
127.14571 -27.514374 2.490278
127.82227 -26.539127 2.506
128.39561 -25.867275 2.4924245
129.25089 -25.110508 2.5081394
130.04065 -24.633369 2.4868422
130.65565 -24.141811 2.5083334
131.48651 -23.369884 2.3
132.19362 -22.698132 2.25
132.85654 -21.646309 2.6625001
133.60783 -21.248562 2.5250001
133.99673 -20.647518 2.8499999
179.18088 24.253761 2.05
181.79716 26.870049 2.3499999
183.70634 28.496399 2.6500001
102.67513 -51.065872 2.451802
103.55465 -50.524002 2.5000002
104.27589 -49.800392 2.5233333
104.98301 -49.095642 2.5683334
105.67871 -48.399971 2.5920289
106.04692 -47.285164 2.4821739
106.39722 -46.408447 2.4801371
109.87384 -43.622368 2.4917328
110.62186 -43.456825 2.5136361
111.34517 -42.733513 2.4993148
112.0376 -42.041103 2.4762497
112.74869 -41.330006 2.4550633
113.37773 -40.434616 2.5863636
113.53441 -39.622936 2.4429204
113.98564 -38.820187 2.5699999
125.44077 -28.04797 2.469512
125.86501 -28.213558 2.3
180.24152 27.435738 2.25
182.25679 29.026733 2.5
184.05991 30.122757 2.6500001
101.13396 -50.419258 2.4892859
101.77559 -50.491249 2.4608109
105.81697 -46.847343 2.45
106.22449 -45.993481 2.463253
108.92181 -43.044392 2.4978878
109.53084 -42.992092 2.05
113.46243 -39.202076 2.49
113.68071 -38.43866 2.4361107
124.7205 -27.330212 2.4550841
177.4131 25.314423 2.05
182.43356 30.75914 2.6500001
88.741905 -61.235451 2.75
99.710892 -50.301811 2.5250001
100.32866 -50.327511 2.4438462
105.51522 -45.161789 2.4842103
107.51558 -42.929913 2.4905169
108.1797 -42.955769 2.4878378
112.91994 -37.686607 2.4633853
124.29008 -26.874344 2.4984848
124.16582 -26.41415 2.5208952
178.6859 28.001427 2.25
179.46371 29.062088 2.1500001
180.63045 29.663132 2.5
76.769691 -72.831993 2.4812503
77.167458 -72.306107 2.5375001
78.256813 -71.375793 2.4656246
78.62706 -70.836037 2.5136364
79.633469 -70.043343 2.575
79.960922 -69.560036 2.4704545
80.704468 -68.848656 2.4000001
81.357483 -68.176048 2.4206896
81.930115 -67.512993 2.4277778
82.832703 -66.725929 2.3656867
83.379684 -66.032005 2.3833334
84.289558 -65.278137 2.3327584
84.862251 -64.549438 2.3766668
85.766998 -63.775982 2.4571431
86.346069 -63.065624 2.4676471
87.254616 -62.298466 2.4400001
87.833839 -61.577854 2.4026318
88.671196 -60.912216 2.45
89.220901 -60.231812 2.5177414
89.932213 -59.300735 2.4375002
99.225204 -49.979744 2.5166667
104.79324 -44.421463 2.4785717
106.67855 -42.605106 2.4986486
112.20628 -36.966362 2.4538753
123.21631 -25.809338 2.484375
123.65991 -25.910583 2.4746163
177.27168 28.567108 2.25
177.76666 28.779243 2.1500001
179.03946 30.193459 2.55
179.03946 30.334869 2.45
180.7365 31.678391 2.4000001
89.20372 -58.573757 2.3981481
98.505478 -49.256863 2.5006492
104.16155 -43.703922 2.6833334
105.92458 -41.859005 2.4817073
111.57576 -36.231239 2.4379034
122.59183 -25.19809 2.4532256
133.00679 -15.414932 2.8499999
178.96875 31.678383 2.1500001
179.3223 31.890511 2.55
88.459068 -57.830849 2.4734571
97.803581 -48.544533 2.4825585
103.49216 -43.034523 2.45
105.23075 -41.166882 2.4937499
110.81682 -35.539883 2.435365
122.0253 -24.60891 2.45
121.92436 -24.174664 2.5141306
131.76935 -14.672474 2.55
131.99329 -14.495697 2.4166667
175.92818 29.062088 2.25
177.50739 31.01841 2.3166666
87.790276 -57.223663 2.4813251
97.103424 -47.839958 2.4916668
102.67191 -42.355705 2.6500001
104.5136 -40.404743 2.3954546
110.09977 -34.859821 2.4631777
121.3791 -23.605282 2.5067163
174.58469 29.55706 2.25
176.02246 31.277695 2.3166666
177.83737 32.38549 2.55
181.23148 35.638184 2.95
87.05748 -56.451534 2.4452381
96.419197 -47.181702 2.4764707
101.68196 -41.365753 2.5
103.79353 -39.732113 2.5086205
109.39722 -34.156071 2.4570863
120.66345 -22.89397 2.524101
130.62621 -13.411453 2.6500001
173.31189 30.122749 2.1500001
174.93823 31.607674 2.45
176.42316 32.951172 2.55
179.81726 35.921021 2.95
180.45367 36.840263 2.8499999
86.390533 -55.729839 2.4917724
95.847496 -46.611496 2.4546514
96.34613 -46.114677 2.4810004
97.04525 -45.416138 2.4864583
97.759163 -44.685265 2.4848623
98.373734 -43.968567 2.5120258
99.108932 -43.26049 2.4806125
99.82933 -42.589828 2.4966669
100.55058 -41.879051 2.4722226
101.30237 -41.127579 2.4763153
103.34827 -39.189095 2.4456522
104.11263 -38.325199 2.2999997
104.79739 -37.609772 2.5558825
105.49619 -36.877708 2.4499998
106.24156 -36.103889 2.3672414
106.93394 -35.495377 2.3794122
107.6391 -34.800991 2.45
108.35341 -34.087093 2.5261471
108.90443 -33.622936 2.4794874
119.94804 -22.182446 2.5250003
129.57732 -12.409714 2.6500001
129.7541 -11.879395 2.25
172.81691 31.041992 2.3499999
173.73615 32.102646 2.45
174.6554 32.314774 2.3499999
175.07965 33.446152 2.45
178.54446 36.203865 2.95
178.89801 36.415993 2.6500001
85.674248 -55.014393 2.4457448
119.23598 -21.465176 2.5188887
128.97629 -11.950096 2.8499999
173.31189 32.951172 2.3499999
177.13025 36.203865 2.6500001
177.27168 36.486717 2.8499999
178.75661 37.547371 2.95
84.930695 -54.372051 2.448734
96.108902 -43.039017 2.501087
96.937271 -42.433479 2.2399998
97.673553 -41.69722 2.40625
98.308052 -41.062714 2.5142858
99.097084 -40.210808 2.3499999
99.737419 -39.633347 2.5571432
