# .PCD v0.7 - Point Cloud Data file format
VERSION 0.7
FIELDS x y z
SIZE 4 4 4
TYPE F F F
COUNT 1 1 1
WIDTH 1537
HEIGHT 1
VIEWPOINT 0 0 0 1 0 0 0
POINTS 1537
DATA ascii
88.741173 -1.0588371 -146.10075
25.212551 -62.824379 -56.496113
33.198151 -54.750149 -67.810455
41.405853 -46.695431 -79.333702
48.474152 -39.581573 -89.248009
58.337395 -29.512604 -103.43221
76.422127 -11.252875 -128.8566
88.47757 0.27756193 -145.05934
88.94828 0.94827724 -145.66644
89.271507 0.77149653 -146.27
25.069756 -62.009007 -55.968761
33.057762 -53.90213 -67.320694
41.25898 -45.837795 -78.719711
48.323833 -38.715443 -88.751999
58.406361 -28.593647 -102.78078
76.042213 -10.557801 -128.70447
24.93347 -61.113773 -55.498734
33.015945 -52.904411 -66.926849
41.117092 -45.015217 -78.383987
48.179863 -37.859444 -88.252655
76.016739 -9.4082718 -127.87429
24.803452 -60.22184 -54.921215
33.029564 -51.940975 -66.681091
40.46946 -44.629925 -77.215675
40.934071 -44.420513 -77.780205
48.039539 -37.019165 -87.759972
57.982155 -26.717854 -101.7072
75.884682 -8.9153318 -127.65448
24.636925 -59.348598 -54.472233
32.865849 -51.168858 -66.145859
40.254433 -43.765148 -76.61602
45.731659 -37.74107 -84.750191
46.259739 -37.45451 -84.973335
46.53323 -37.011684 -85.597939
46.741253 -36.658756 -86.279404
47.881802 -36.148602 -87.271812
57.634182 -26.29916 -101.6572
75.834305 -7.9457068 -127.00448
24.485676 -58.489941 -53.933533
32.758286 -50.234261 -65.677315
40.048519 -42.917698 -75.993271
46.039215 -37.038063 -84.042046
46.050903 -36.868359 -84.541161
46.618877 -36.318115 -85.324089
47.738972 -35.296532 -86.771645
57.754532 -25.270472 -100.8447
58.79784 -24.102165 -102.53355
75.717644 -7.3623638 -126.67448
24.078245 -57.541779 -52.957726
24.334717 -57.559891 -53.462151
32.577312 -49.641811 -65.198769
33.085167 -49.038845 -65.89505
33.631695 -48.60516 -66.475327
34.018291 -48.166336 -67.111214
34.70089 -47.640797 -67.875114
34.89381 -47.031193 -68.792572
35.56604 -46.633972 -69.273796
36.044071 -46.305931 -69.693764
36.646641 -45.583366 -70.750786
37.11747 -45.015865 -71.58165
37.656628 -44.607674 -72.12059
37.973522 -44.270237 -72.741302
38.57674 -43.557903 -73.650879
38.938324 -43.068794 -74.372147
39.472378 -42.57275 -75.072182
40.006474 -42.168713 -75.690346
45.821758 -36.578247 -83.902817
45.99427 -36.088638 -84.297081
46.352264 -35.785477 -84.754868
47.559132 -34.429058 -86.251289
57.326393 -24.273609 -100.37183
58.866043 -23.533966 -102.08355
75.62384 -6.236177 -125.94448
20.854944 -61.045055 -47.581299
35.13113 -45.802216 -68.121071
35.359234 -45.674103 -68.906281
35.971684 -44.861664 -69.587921
47.475464 -33.857903 -85.905754
47.926434 -33.451622 -86.640114
48.422512 -32.861866 -87.293663
48.926662 -32.416809 -87.926384
49.473366 -32.006634 -88.704163
49.916061 -31.317276 -89.151321
50.562901 -31.012102 -90.049492
51.032871 -30.281425 -91.059204
51.240303 -29.1597 -91.513344
52.073147 -28.926857 -91.466896
53.64637 -27.253639 -94.262482
57.253429 -23.546579 -99.90934
75.569107 -5.5309052 -125.48447
17.337786 -63.362213 -42.655811
18.039042 -62.210957 -44.315735
30.757881 -49.105988 -61.949055
31.208427 -48.786804 -62.627705
31.699671 -48.2911 -63.350689
32.208473 -47.80027 -64.057304
32.717426 -47.30521 -64.759514
33.20372 -46.833145 -65.425713
33.754368 -46.310665 -66.161385
34.23592 -45.835529 -66.854996
34.942852 -45.348816 -67.705757
35.925812 -44.327126 -69.318184
36.49971 -43.660286 -69.876701
36.745705 -43.23764 -70.492851
37.291325 -42.800343 -71.129532
37.768623 -42.306404 -71.874657
38.249641 -41.844978 -72.517189
38.768761 -41.329636 -73.270111
39.276672 -40.840717 -73.962601
39.760567 -40.347153 -74.682251
40.038345 -39.812073 -75.056366
46.357456 -33.215294 -83.820198
47.451351 -32.194107 -85.243042
47.945827 -31.985609 -86.11129
48.20483 -31.869175 -86.601051
49.673775 -30.851227 -88.584541
50.752434 -29.847569 -90.08197
51.973148 -28.826855 -91.466888
56.105988 -23.694016 -97.218719
55.899921 -23.600082 -97.43943
57.299156 -22.78418 -99.455772
58.329212 -21.370794 -100.93355
75.538826 -4.7611847 -124.96162
77.911545 -1.7384729 -128.71249
23.730804 -55.400566 -51.680599
24.13603 -54.904236 -52.357464
30.615108 -48.42065 -61.402214
39.944801 -39.05859 -74.621918
46.238106 -32.762569 -83.56945
46.672104 -32.508167 -84.19265
47.144451 -32.080975 -84.887077
47.77644 -31.54023 -85.730728
47.909164 -31.460848 -86.020714
56.049438 -23.283899 -96.968735
56.187317 -23.13769 -96.944611
57.225178 -22.14982 -98.977005
75.326828 -3.8398426 -124.46004
77.843643 -1.2119186 -128.36458
24.061377 -53.89975 -51.917763
30.4683 -47.544224 -60.904682
39.805702 -38.21262 -74.125847
46.117561 -31.854164 -83.079193
46.016861 -31.833136 -83.379402
55.916626 -22.383381 -96.425865
55.727425 -22.222584 -96.601494
57.017323 -21.122677 -98.461349
75.052574 -2.9099324 -123.98756
77.580536 -0.23058724 -127.87243
23.892845 -53.034733 -51.433392
30.322344 -46.699791 -60.404987
39.661098 -37.340805 -73.62233
45.973473 -31.008162 -82.581337
45.692383 -30.907618 -82.954399
55.792278 -21.382725 -95.806213
55.803795 -21.285109 -95.886177
56.857376 -20.209297 -97.947441
58.04845 -19.251553 -99.633545
74.89563 -2.073611 -123.51601
77.388962 0.54895508 -127.45041
23.785975 -52.204926 -50.922935
30.164108 -45.840954 -59.924904
39.49931 -36.485817 -73.145737
45.790863 -30.214302 -82.155655
46.011024 -29.924959 -82.062546
55.686108 -20.763901 -95.443718
55.359207 -20.668074 -95.74852
56.705116 -19.266319 -97.401794
74.714577 -1.2416799 -123.04693
77.418533 1.4899573 -126.76816
23.650887 -51.317486 -50.413292
30.025635 -44.983631 -59.429268
39.363674 -35.623909 -72.643341
45.616272 -29.22477 -81.586281
45.888905 -29.364594 -81.730965
55.18652 -19.783484 -95.103722
55.24334 -19.676672 -95.129433
56.541088 -18.308918 -96.850891
74.662727 -0.39840013 -122.49615
77.216362 2.5163589 -126.35454
23.531576 -50.487175 -49.91243
29.865183 -44.120838 -58.926174
39.201721 -34.74884 -72.172043
45.536308 -28.450781 -81.094826
45.334003 -28.336004 -81.389404
55.120667 -18.91684 -94.537468
55.2066 -18.841553 -94.580635
56.42292 -17.699308 -96.448395
74.519585 0.48956391 -121.96948
77.327316 3.3273056 -125.33142
77.187714 3.3752108 -125.67908
23.387478 -49.62595 -49.421879
29.708796 -43.269207 -58.44978
39.062248 -33.898048 -71.677475
45.387547 -27.592569 -80.593826
45.24292 -27.467091 -80.839417
54.92934 -17.980663 -93.996651
55.046913 -18.000465 -94.090538
56.284035 -16.82184 -95.968674
74.257637 1.3724439 -121.5304
77.383385 3.4833763 -125.18143
77.01976 4.1114197 -125.2184
23.240791 -48.793926 -48.933266
29.567142 -42.422211 -57.941998
38.919395 -33.045555 -71.187103
45.16415 -26.797121 -80.194656
45.433678 -26.640478 -80.170807
54.802776 -17.184731 -93.537476
54.846725 -17.153271 -93.629753
56.046535 -15.867114 -95.461143
63.004215 -8.4557886 -105.21155
63.324669 -8.1178465 -106.00462
63.830425 -7.6872454 -106.68158
64.352577 -7.1760097 -107.36327
64.852364 -6.7122664 -108.09588
65.377045 -6.2272043 -108.79147
65.893478 -5.7198634 -109.48917
66.467621 -5.2001514 -110.16136
66.964691 -4.7111468 -110.85287
67.393906 -4.2389708 -111.40728
68.142235 -3.5657911 -112.07045
68.54567 -3.1093607 -112.71546
68.984421 -2.8155851 -113.08842
74.19706 2.170578 -121.0089
76.806458 4.9576201 -124.75081
23.115007 -47.919281 -48.410702
29.399603 -41.550987 -57.453442
38.780636 -32.190109 -70.696014
45.084072 -25.861488 -79.590355
45.15395 -25.849907 -79.761559
54.671379 -16.378632 -93.060394
54.667595 -16.30463 -93.160034
55.978096 -15.101912 -94.955826
62.272823 -8.6211939 -104.26743
62.887157 -8.362114 -105.03659
63.451744 -7.8976431 -105.66006
64.063927 -7.4281259 -106.28492
64.572159 -6.8997188 -107.02568
65.114182 -6.4136381 -107.69462
65.660416 -5.9327974 -108.35428
66.190483 -5.4350381 -109.07432
66.686157 -4.9701247 -109.71692
67.218292 -4.4778552 -110.38341
67.526184 -3.8485706 -111.36996
67.959747 -3.3856795 -112.01752
68.510834 -2.7848043 -112.7382
68.628967 -2.2273438 -112.98059
74.017746 3.0381775 -120.52541
76.655075 5.7486525 -124.31567
22.946144 -47.057915 -47.937286
29.229473 -40.687782 -56.966858
38.634911 -31.335531 -70.195587
44.967525 -25.04273 -79.09407
44.915859 -24.933081 -79.278885
54.530693 -15.563432 -92.583427
54.545185 -15.393954 -92.610191
55.846035 -14.246655 -94.437149
62.031494 -7.757401 -103.57017
68.737762 -1.5585458 -112.23249
68.495178 -1.4179933 -112.50705
73.869492 3.8996618 -120.02318
76.751289 6.684617 -123.36476
76.528763 6.5625854 -123.82344
22.791878 -46.204098 -47.444065
29.089584 -39.859699 -56.478722
38.482964 -30.463675 -69.702888
44.817898 -24.184149 -78.595009
44.88483 -24.019382 -78.676613
54.43187 -14.703424 -92.045189
54.385555 -14.551123 -92.130539
55.675591 -13.368313 -93.957214
56.326881 -11.973125 -95.562836
61.872906 -6.9456286 -103.11353
63.628067 -6.0719495 -104.56499
63.981728 -5.7325759 -105.03123
64.432945 -5.1670637 -105.8073
68.572418 -0.69728899 -111.74042
68.370911 -0.57164317 -111.99017
73.714523 4.810338 -119.51296
76.53347 7.3186421 -123.04425
76.377556 7.4414754 -123.31163
22.642244 -45.354336 -46.897049
28.960299 -38.975231 -55.953903
38.343536 -29.608967 -69.204247
44.539608 -23.268236 -78.152893
44.856472 -23.280926 -78.20665
54.237373 -13.826633 -91.562714
54.2598 -13.717342 -91.639275
55.555538 -12.47578 -93.422218
56.240196 -11.126475 -95.166878
56.578976 -10.58574 -95.551544
57.04063 -10.145097 -96.169678
57.607536 -9.6091423 -96.898331
58.240356 -9.0992432 -97.645935
58.718887 -8.6723585 -98.304482
59.184074 -8.1867638 -98.920265
59.718113 -7.6333237 -99.686638
60.256454 -7.1477733 -100.37899
60.830704 -6.6563106 -101.07339
61.357067 -6.18576 -101.75958
61.734787 -5.9025583 -102.33257
63.436501 -5.3635054 -103.9638
68.370544 0.087786913 -111.32803
68.336914 0.55443031 -111.53601
68.956345 1.3213297 -112.25739
69.43251 1.8100228 -112.95344
69.956177 2.3101766 -113.64468
70.449829 2.8119736 -114.3666
70.931427 3.3195624 -115.09072
71.456291 3.824228 -115.77802
71.945038 4.3222303 -116.47762
72.455185 4.830924 -117.20621
72.93576 5.3195252 -117.89052
73.476746 5.698277 -118.75074
75.151154 8.0511408 -121.83289
76.37812 8.186677 -122.52204
76.201317 8.3013096 -122.83699
22.493546 -44.491337 -46.403473
28.823349 -38.134354 -55.455872
31.960941 -34.762577 -59.624809
32.285748 -34.394993 -60.221584
32.771305 -33.920647 -60.895309
33.289444 -33.408546 -61.608814
33.797199 -32.920086 -62.293262
34.342072 -32.425644 -62.986275
34.865761 -31.944895 -63.672009
35.272923 -31.618744 -64.025558
38.209404 -28.759497 -68.708969
44.535511 -22.483154 -77.592033
44.595631 -22.400591 -77.714523
54.093487 -12.951982 -91.04599
54.074291 -12.866206 -91.179008
55.403542 -11.607438 -92.897072
63.304699 -4.5953093 -103.5138
70.240051 4.0400476 -114.42395
72.956505 5.9564905 -118.69991
74.979179 8.0291719 -121.54575
76.228676 8.9726629 -122.08244
76.106659 9.145195 -122.31228
79.039055 11.939024 -126.02919
79.533333 12.317025 -126.68291
80.067001 12.835267 -127.38451
80.560074 13.296999 -128.04741
81.096283 13.858023 -128.73402
81.616547 14.251317 -129.45403
82.101181 14.926159 -130.1237
90.216835 22.916821 -141.39755
22.341557 -43.665791 -45.91227
28.664631 -37.281963 -54.964172
31.745661 -34.249966 -59.238468
35.075527 -30.987545 -63.746021
38.073448 -27.897026 -68.203232
44.380348 -21.629856 -77.100624
44.466743 -21.537014 -77.195015
53.916382 -12.075727 -90.551598
53.946739 -12.004947 -90.659569
55.314812 -10.685209 -92.390816
55.693375 -9.9845428 -92.831047
56.193844 -9.5314941 -93.488205
56.687462 -9.1216345 -94.088661
57.308598 -8.5580788 -94.905159
57.72802 -7.9094877 -95.764519
58.281021 -7.4267054 -96.362015
58.817535 -6.9971218 -97.018539
59.360378 -6.4978065 -97.704933
59.906197 -6.0278578 -98.357307
60.421696 -5.5244842 -99.069473
60.878994 -5.0429049 -99.791458
61.444447 -4.5355706 -100.46352
61.811344 -4.1386676 -101.05074
62.541096 -3.5589173 -101.9067
70.110771 4.1107607 -114.18255
74.802193 9.4021807 -120.84148
75.97319 9.8818617 -121.54347
75.951729 10.034024 -121.80629
78.824883 12.580223 -125.45996
79.250496 13.08685 -126.30145
79.828659 13.575317 -127.02657
80.327232 14.203689 -127.63169
80.862709 14.519219 -128.29736
81.443565 15.296185 -128.87375
81.985153 15.619929 -129.72592
89.741096 23.641087 -140.37331
12.902401 -51.651459 -32.431057
13.396807 -51.175617 -33.089806
13.937509 -50.622498 -33.859802
14.359931 -50.173412 -34.5242
14.935255 -49.596012 -35.30991
15.109653 -49.290352 -35.730598
16.078812 -48.721191 -36.351685
17.444641 -47.655365 -37.837795
17.903221 -46.596786 -39.310589
18.47393 -46.426075 -39.63485
19.123932 -45.576077 -40.695511
20.429996 -44.570011 -42.030437
20.280081 -44.039921 -43.119259
20.664772 -43.601887 -43.725445
21.171953 -43.061378 -44.477394
22.172602 -42.79792 -45.400665
28.601923 -36.227711 -54.418739
28.992661 -35.604908 -54.900742
29.478493 -35.116955 -55.599491
29.976553 -34.613529 -56.332294
30.467562 -34.127529 -57.02932
30.964941 -33.634315 -57.728958
31.524286 -33.368126 -58.627018
34.261803 -29.838209 -63.127953
34.967815 -29.815897 -63.380257
35.49004 -29.113165 -64.08815
35.991272 -28.618666 -64.781822
36.49696 -28.114346 -65.479614
36.996704 -27.616989 -66.178032
37.513252 -27.116236 -66.885826
37.920479 -27.039848 -67.697845
37.96431 -26.835693 -68.569115
44.215843 -20.736 -76.569405
44.472961 -20.388674 -76.769867
45.054813 -19.628712 -77.433067
45.597237 -19.092505 -78.182686
46.087379 -18.623446 -78.850029
46.616383 -18.086674 -79.609924
46.969139 -17.802294 -79.966927
52.218758 -12.575366 -87.396812
52.44672 -12.197729 -88.015892
53.070694 -11.612657 -88.806923
53.692928 -11.187821 -89.900497
53.788067 -11.147348 -90.171028
55.279343 -10.232543 -92.240967
55.620815 -9.8153467 -92.788162
56.091366 -8.9869194 -93.368759
56.434689 -8.4973812 -93.853386
56.837578 -7.6591916 -94.829201
57.631813 -7.4580421 -95.432465
58.280598 -7.340344 -96.15403
58.788887 -6.8898163 -96.919426
59.313904 -6.3860769 -97.625595
59.851124 -5.8913627 -98.31279
60.366653 -5.4098072 -98.983856
60.897884 -4.9021139 -99.694977
61.4151 -4.0387468 -100.36607
61.608227 -3.3548856 -100.75928
61.835655 -2.8243613 -101.20728
62.548519 -2.1882615 -102.48395
63.026169 -1.7528551 -103.11385
63.302193 -1.5290685 -103.48644
69.320389 4.8203783 -112.82543
74.326447 10.126435 -119.81721
74.667274 10.251884 -120.34691
75.165947 10.677045 -121.04461
75.949387 11.102149 -121.34543
76.520401 11.899965 -122.02261
77.068466 12.366258 -122.71986
77.612267 12.8643 -123.39989
78.113609 13.346899 -124.07238
78.623497 13.517601 -124.84183
79.019394 14.103997 -125.66356
79.604919 14.59062 -126.53487
80.203903 15.053894 -127.04743
80.838402 15.420205 -127.8742
81.388779 16.006937 -128.48433
81.848846 16.455734 -129.12906
82.330849 17.164165 -129.68694
82.58252 17.682503 -130.69807
83.484291 18.484283 -131.40266
83.782516 18.882507 -132.39514
12.740054 -51.626614 -31.586382
12.713977 -51.474255 -31.951162
13.763329 -50.60334 -33.050182
13.796012 -50.461155 -33.370995
14.065004 -49.868332 -34.249889
14.855604 -49.434002 -34.806519
15.305911 -48.757744 -35.700546
15.906034 -48.346718 -36.286251
16.237522 -47.693729 -37.025848
16.873974 -47.264908 -37.702026
17.255919 -46.669071 -38.39341
17.895142 -46.215172 -39.149971
18.275669 -45.761833 -39.826851
18.951963 -45.224457 -40.649521
19.385174 -44.780556 -41.334198
19.922558 -44.195889 -42.064316
20.343681 -43.920033 -42.749077
21.020889 -43.299549 -43.548763
21.424562 -42.968815 -44.208176
22.016754 -42.294277 -45.008923
21.960541 -42.089462 -45.416706
29.739096 -34.710911 -55.134396
29.764055 -34.258183 -56.344402
30.157259 -33.852749 -57.116898
30.716148 -33.323853 -57.776073
31.134239 -32.92366 -58.49258
31.697153 -32.302853 -59.471706
32.287319 -31.662689 -59.591686
32.882511 -31.217495 -60.977345
32.947151 -31.052851 -61.239471
34.050186 -30.099819 -62.543335
34.766823 -29.430222 -63.476467
35.274391 -28.954161 -64.140488
35.809887 -28.470863 -64.808678
36.371525 -27.960451 -65.515495
36.886509 -27.472296 -66.198006
37.406464 -26.985191 -66.877274
37.708054 -26.426304 -67.493004
44.113728 -20.171577 -76.212997
44.358307 -19.903589 -76.672577
44.923962 -19.333 -77.430496
45.365383 -18.868509 -78.044891
45.917648 -18.321768 -78.78466
46.395653 -17.83403 -79.415115
46.900368 -17.209892 -80.036079
47.380817 -16.605934 -80.77298
47.909279 -16.062239 -81.449921
48.407684 -15.567155 -82.152153
48.903217 -15.066531 -82.853775
49.413231 -14.576593 -83.563156
49.895771 -14.088807 -84.269012
50.416607 -13.587004 -84.974838
50.92857 -13.085644 -85.665894
51.40519 -12.575727 -86.40065
51.904167 -12.160531 -87.145233
52.401566 -11.65165 -87.872696
52.895161 -11.152287 -88.569992
53.417122 -10.651651 -89.307892
53.673321 -10.523463 -89.808334
55.874889 -8.3822641 -92.110931
55.863682 -8.1117296 -92.821457
56.38982 -7.5889792 -93.4468
56.991402 -6.9514661 -94.415009
57.332466 -6.5518627 -94.733368
61.33733 -3.2126818 -100.25033
61.746185 -2.9123826 -100.66605
62.12212 -2.1128933 -101.07793
62.44323 -1.7086195 -102.02396
63.241322 -1.5196471 -102.64622
63.572681 -1.2773297 -103.09946
66.241089 2.2827432 -106.662
66.512848 2.3128364 -106.9671
74.131889 10.406877 -119.40292
74.517731 10.946286 -119.90361
75.125923 11.559246 -120.64719
75.592033 11.905652 -121.23839
76.16552 12.388435 -121.95251
76.718132 12.846972 -122.60709
77.279144 13.249351 -123.2963
77.844269 13.788013 -124.01255
78.363991 14.306408 -124.57028
79.019318 14.910971 -125.36041
79.508736 15.356086 -126.0164
80.014977 15.797318 -126.526
80.779297 16.439281 -127.38391
81.206924 16.801029 -127.94327
81.663391 17.253035 -128.53067
82.303467 17.903456 -129.38556
82.673454 18.173447 -129.90952
83.031784 18.93177 -130.69911
84.044647 19.74464 -132.59012
89.215355 24.315346 -139.27832
33.950706 -29.049297 -62.365822
34.571419 -28.628586 -62.902214
34.986065 -28.113941 -63.659321
35.556778 -27.743231 -64.125008
36.164101 -27.085907 -65.069244
36.856777 -26.443232 -65.963486
37.01738 -25.982634 -66.702744
37.46925 -25.540764 -67.324715
46.877487 -15.622519 -80.500595
47.983559 -14.216453 -81.976944
48.371552 -14.240957 -82.621475
48.896862 -13.803144 -83.390007
49.39225 -13.129976 -83.952408
50.02177 -12.522676 -84.649193
50.51881 -12.081207 -85.349503
50.864788 -12.064164 -85.965126
55.393456 -7.581687 -91.574066
55.674553 -7.1052375 -92.239441
56.009495 -6.6078434 -92.927261
56.813431 -6.1914377 -93.680656
57.119156 -5.6160827 -94.310776
57.741936 -5.0937805 -94.677864
61.018913 -2.4810972 -99.392479
61.782909 -1.3092656 -100.74206
62.331238 -0.85180247 -101.53903
62.734745 -0.44529846 -101.93794
66.218185 2.5328915 -106.52905
66.499573 3.3995492 -106.93692
66.896622 3.7139249 -107.86127
67.027992 4.0011473 -108.27883
70.133553 7.7335443 -113.16035
72.251137 9.2332697 -115.60031
73.126083 9.9844007 -116.27631
73.491867 10.077564 -116.66393
73.967743 11.53439 -118.79247
74.346321 11.790434 -119.34611
74.993919 12.349464 -120.17221
75.461472 12.786906 -120.71011
76.009865 13.312486 -121.36834
76.53614 13.756128 -122.06627
77.124611 14.13636 -122.83125
77.599655 14.568389 -123.4039
78.164841 15.053062 -124.06795
78.741577 15.527276 -124.71528
79.273315 16.043303 -125.42902
79.952927 16.441803 -126.12803
80.658875 17.12553 -126.99958
81.02243 17.58432 -127.47311
81.608887 18.008877 -128.16705
82.226494 18.701481 -128.99185
82.710335 19.210323 -129.66879
84.431046 21.131035 -132.04366
88.704269 24.904255 -138.23335
47.832474 -13.767538 -81.554214
48.270237 -13.259392 -82.171219
48.721001 -12.769007 -82.761902
49.25433 -12.264046 -83.464249
49.824604 -11.993045 -84.262711
50.199902 -11.81314 -84.865273
54.990955 -7.1903 -90.314751
55.210644 -6.957108 -90.999428
55.617645 -6.409627 -91.821281
56.129215 -5.8980794 -92.433174
56.576965 -5.3045182 -93.225372
57.112316 -4.9005909 -93.943558
57.48597 -4.5603919 -94.491112
57.781044 -4.318965 -95.203392
60.572468 -2.1942041 -98.279655
60.837112 -1.5628997 -99.013191
61.138428 -0.71872413 -99.051743
61.682365 -0.30994463 -100.31371
61.683651 0.25239235 -100.55164
66.979332 4.7340164 -107.29179
67.370682 5.4811039 -108.05355
67.703979 5.8213592 -108.36417
72.112877 9.596199 -114.42705
72.550911 9.784236 -115.18641
72.823654 10.256978 -115.41354
73.849876 12.221292 -118.39007
74.18792 12.622278 -118.83096
74.809441 13.256092 -119.5584
75.300278 13.600265 -120.14883
75.83223 14.071756 -120.83682
76.383034 14.5916 -121.48877
76.898834 15.118823 -122.2463
77.664375 15.742622 -122.69655
78.280251 16.160242 -123.55951
78.784256 16.450907 -124.3081
79.919952 17.919945 -125.48325
80.684601 18.984585 -126.87675
81.372467 18.672455 -127.74243
88.207817 25.607811 -137.37981
55.032166 -6.2078424 -91.044014
55.499023 -5.9259605 -91.434677
56.229767 -5.0075788 -92.186745
56.446491 -4.748455 -92.60257
57.293533 -4.1769209 -93.620468
57.243092 -3.94802 -93.97641
61.353859 0.066348374 -99.09565
61.554413 0.31502083 -99.758148
61.677933 0.43311122 -100.45015
66.9543 5.1342897 -106.89433
67.77298 6.1929913 -108.47071
70.149239 9.3492289 -112.7139
73.251167 12.791161 -117.08112
73.665413 13.265405 -117.76935
74.057594 13.489937 -118.33192
74.702438 14.032164 -119.10968
75.192825 14.457394 -119.67769
75.687012 14.921898 -120.31202
76.286186 15.462167 -120.99988
76.819626 15.983902 -121.61486
77.581505 16.468767 -122.21812
78.095192 17.122757 -122.83616
78.682793 17.560558 -123.50616
79.192055 18.186777 -124.19407
79.736221 18.654053 -124.86172
80.189835 19.128277 -125.48235
80.770927 19.626472 -126.23612
81.373505 20.373497 -127.24599
81.54422 20.544205 -127.28742
83.538155 22.238144 -130.19513
87.696732 26.19672 -136.33482
56.33802 -4.3819866 -91.705132
56.451534 -4.2484722 -92.063141
61.094475 0.66946971 -98.348701
61.160114 0.81010723 -99.36956
73.059708 13.526357 -116.65892
73.493469 13.916989 -117.28499
73.992935 14.42051 -117.87981
74.530357 14.848514 -118.55496
75.08519 15.316092 -119.18517
75.631126 15.862062 -119.89307
76.242592 16.351095 -120.58426
76.699875 16.793413 -121.11619
77.334801 17.237066 -121.83831
77.867134 17.782021 -122.51289
78.538513 18.379534 -123.21602
79.049255 18.716547 -123.87125
79.629761 19.297062 -124.54604
80.145836 19.711615 -125.21777
80.638176 20.213158 -125.88766
81.138672 20.688663 -126.5528
81.564934 20.764919 -127.25813
82.791702 22.491692 -128.84659
83.035645 22.435631 -129.27945
87.250282 26.750271 -135.41055
72.860207 14.26019 -116.10342
73.319954 14.735322 -116.72602
73.858902 15.227194 -117.42752
74.416679 15.681889 -118.05712
74.967697 16.200418 -118.68922
75.517303 16.686178 -119.43104
76.094116 17.162107 -120.0581
76.599091 17.656761 -120.6528
77.261551 18.197556 -121.37976
77.794304 18.622868 -122.05224
78.403366 19.14747 -122.70532
78.906715 19.588522 -123.34209
79.441414 20.091389 -123.97122
80.007446 20.565332 -124.71569
80.512802 21.050289 -125.37846
80.924545 21.424534 -125.97173
82.114197 22.614187 -127.75415
71.77758 13.727572 -113.91126
72.843483 14.843472 -115.90403
73.202332 15.177317 -116.36884
73.665344 16.042841 -116.91076
74.228409 16.541174 -117.59229
74.70311 16.955179 -118.20177
75.32753 17.585527 -118.93744
75.91703 18.05406 -119.61055
76.493706 18.507969 -120.28109
77.065819 19.0158 -120.93396
77.496292 19.362282 -121.50735
78.16806 19.978472 -122.27299
78.755569 20.443653 -122.95634
79.235535 20.895844 -123.55754
79.862274 21.440691 -124.27122
80.382317 21.884878 -124.91637
80.801926 22.463449 -125.51964
81.259819 22.759804 -126.23297
82.036674 23.336674 -127.51021
84.557388 25.85738 -130.87502
70.463455 13.663449 -111.98671
71.690231 15.190225 -113.43375
73.176254 16.659578 -115.94019
73.539909 17.001663 -116.40198
74.092857 17.428408 -117.09752
74.507301 17.845137 -117.59492
75.172371 18.400364 -118.40591
75.685783 18.870213 -118.99007
76.303047 19.359287 -119.73098
76.85511 19.858549 -120.37653
77.404343 20.280087 -121.02483
78.089569 20.943405 -121.78585
78.564377 21.31912 -122.43544
79.097145 21.737137 -123.01393
79.71183 22.325823 -123.72551
80.223198 22.729643 -124.418
80.643738 23.327065 -125.00177
81.254883 23.654865 -126.28239
84.125595 26.325581 -130.00076
70.62307 15.123063 -111.83167
71.023079 15.523068 -112.39737
71.25843 16.05842 -112.84232
72.521896 16.888552 -114.75607
72.917091 17.447844 -115.26688
73.439453 17.836224 -115.94164
73.948822 18.36132 -116.58061
74.393982 18.689096 -117.11234
75.017349 19.231068 -117.85153
75.586792 19.737947 -118.53965
76.184166 20.221369 -119.22249
76.727364 20.669676 -119.88932
77.33519 21.235182 -120.56955
77.933304 21.700794 -121.26943
78.432327 22.165657 -121.87637
78.97612 22.620384 -122.51169
79.549522 23.096169 -123.18813
80.026802 23.606102 -123.86918
80.436729 24.011719 -124.38121
83.176628 27.076618 -128.16081
83.643791 26.743782 -129.05579
70.730675 16.497334 -111.67951
72.345467 17.91688 -114.15368
72.694023 18.166018 -114.67574
73.240021 18.651442 -115.38564
73.761589 19.127527 -116.01231
74.297539 19.574615 -116.64222
74.887642 20.059429 -117.34283
75.488228 20.5536 -118.04643
76.043663 21.090466 -118.67355
76.609962 21.530706 -119.37894
77.190269 22.026619 -120.05692
77.736702 22.558643 -120.68048
78.289459 23.049456 -121.33743
78.816711 23.45705 -121.95356
79.416573 23.994118 -122.71014
79.82428 24.336769 -123.28214
82.65947 27.559464 -127.33655
71.303406 17.303396 -112.35448
72.145111 18.667318 -113.59186
72.540794 18.993914 -114.14668
73.078728 19.489824 -114.87363
73.617264 19.923929 -115.45248
74.185722 20.478012 -116.14891
74.833054 20.957361 -116.92593
75.366753 21.425079 -117.55048
75.944458 21.966005 -118.22923
76.515648 22.392305 -118.86848
77.068428 22.908426 -119.54096
77.643211 23.424328 -120.20705
78.172417 23.877863 -120.86044
78.765366 24.35643 -121.54132
79.285011 24.813955 -122.22224
79.704323 25.179314 -122.78893
80.66909 26.669079 -123.99955
81.386246 26.586235 -125.24808
82.24231 27.942303 -126.51228
70.571609 17.571598 -111.12665
72.068588 19.468573 -113.22654
72.401611 19.910177 -113.62572
72.951828 20.31727 -114.33665
73.543488 20.838823 -115.01278
74.061844 21.309835 -115.66595
74.679726 21.839281 -116.38541
75.258301 22.347178 -117.02861
75.799347 22.758434 -117.71814
76.4086 23.324726 -118.39629
76.950256 23.757061 -119.08128
77.484215 24.254904 -119.69041
78.039017 24.689989 -120.32077
78.675728 25.243 -121.08708
79.164322 25.666876 -121.76531
79.346703 25.946695 -122.287
79.931221 26.731209 -122.92172
80.445877 27.34586 -123.82027
81.653198 28.203184 -125.33019
70.808006 19.707991 -111.00447
71.794983 20.342031 -112.50364
72.31855 20.68313 -113.21836
72.80146 21.161449 -113.8068
73.399307 21.728136 -114.52103
74.017822 22.206184 -115.22668
74.516754 22.66258 -115.83284
75.065231 23.10022 -116.48845
75.577141 23.603445 -117.07336
76.223831 24.05406 -117.83274
76.779968 24.663294 -118.46871
77.338066 25.018412 -119.18588
77.893501 25.580769 -119.82008
78.496696 26.048767 -120.55606
78.89283 26.43782 -121.03501
79.193359 26.793346 -121.84392
79.628708 27.528698 -122.57172
80.484779 28.484768 -123.5531
81.070129 28.970123 -124.21021
81.357994 28.657986 -124.79305
67.626198 17.426188 -106.24111
70.825943 20.200933 -110.89071
71.141441 20.670843 -111.28579
71.702019 21.110895 -112.02641
72.167526 21.452621 -112.58879
72.799355 22.01679 -113.30863
73.368645 22.526821 -114.01196
73.900429 22.979664 -114.63475
74.438629 23.443617 -115.26153
75.041145 23.926252 -116.00816
75.641037 24.471581 -116.65976
76.16407 24.999475 -117.32301
76.739853 25.476048 -117.99996
77.258438 25.899733 -118.63297
77.812729 26.385218 -119.31157
78.322861 27.012323 -119.96743
78.771278 27.221264 -120.67303
79.302979 27.802963 -121.33533
79.74321 28.57653 -122.12695
80.226196 28.426186 -122.92883
80.7444 29.644386 -123.25666
82.717621 31.117611 -126.19366
67.929756 18.729742 -106.37751
70.188332 20.588316 -109.68877
70.418961 20.993948 -109.96368
71.010651 21.440371 -110.79435
71.499565 21.850832 -111.41895
72.092819 22.390682 -112.12268
72.716461 22.933426 -112.78563
73.256729 23.35817 -113.25471
73.912926 23.876371 -114.03402
74.457558 24.37454 -114.69804
75.022491 24.899406 -115.41698
75.490967 25.34737 -116.05987
76.027824 25.737974 -116.8203
76.602608 26.253479 -117.49516
77.138412 26.669979 -118.16151
77.667328 27.232958 -118.86007
78.213104 27.781101 -119.55322
78.588676 27.888662 -120.22418
79.249207 28.799194 -120.95175
79.4944 28.794384 -121.77172
82.250465 31.450455 -125.29869
31.713514 -17.175341 -54.202229
32.208427 -16.805229 -54.851402
32.740509 -16.2855 -55.602871
33.241982 -15.798197 -56.24297
33.735615 -15.29099 -57.014004
34.243317 -14.787904 -57.678345
34.732262 -14.308264 -58.42831
35.233864 -13.801336 -59.108154
35.736897 -13.206841 -59.893745
36.018101 -12.633186 -60.943314
36.59338 -12.18299 -61.237114
37.122166 -11.874404 -62.077015
37.604832 -11.39094 -62.746677
38.189751 -10.686388 -63.419971
38.650665 -10.173546 -64.007713
39.137352 -9.8289452 -64.76989
39.651249 -9.3886356 -65.534973
40.170418 -8.9000149 -66.277214
40.629635 -8.4536963 -66.948486
41.141781 -7.8740063 -67.757874
67.500465 18.500456 -105.71182
69.308731 20.992048 -108.06895
69.860466 21.528879 -108.8536
70.371834 21.895075 -109.52628
70.839371 22.246902 -110.1823
71.33297 22.738678 -110.87012
71.921967 23.193384 -111.61098
72.653275 23.817186 -112.32803
73.221039 24.060219 -112.7031
73.811226 24.634466 -113.44185
74.234871 25.12755 -114.26227
74.739258 25.581543 -114.93367
75.349319 26.058397 -115.65154
75.79483 26.532318 -116.55621
76.334534 27.026186 -117.19539
76.832352 27.499008 -117.82896
77.386032 27.978317 -118.59615
77.925568 28.469999 -119.16636
78.562035 28.962023 -119.88813
79.053604 29.436928 -120.49771
79.52816 29.808147 -121.17244
81.466148 32.26614 -123.72087
31.597347 -16.422346 -53.697918
35.699169 -12.34352 -59.518162
35.873123 -11.868059 -60.462379
36.612949 -11.598333 -60.927452
37.084835 -11.310157 -61.675507
37.567295 -10.822001 -62.386196
38.022285 -10.389894 -62.997562
38.390739 -9.8949842 -63.763828
39.161411 -9.3332558 -64.475716
39.672325 -8.8582344 -65.151169
40.185322 -8.3379078 -65.886925
40.576031 -7.5930872 -66.222443
41.060345 -6.8814583 -67.253296
44.33989 -2.8101165 -72.315979
44.685986 -2.6508648 -72.844368
45.255344 -2.3348229 -73.64283
45.809505 -1.9122944 -74.382317
46.323872 -1.4008975 -75.030464
46.819508 -0.80666006 -75.669846
47.277782 -0.15234035 -76.188316
57.155109 9.224226 -89.836105
57.572269 9.436965 -90.499626
58.089504 9.9940729 -91.172623
58.580269 10.491442 -91.896049
59.086411 10.917263 -92.615295
59.464676 11.483602 -93.162582
60.019314 12.434113 -93.794029
60.542858 12.785912 -94.298958
61.199417 13.355913 -95.035973
61.522373 13.894415 -95.917
61.982544 14.386608 -96.624588
61.929535 14.679526 -97.220779
67.699028 19.860319 -104.73379
68.054436 20.229034 -105.19004
68.525352 20.715725 -105.91798
69.02018 21.178232 -106.61286
69.472504 21.577694 -107.3195
69.974121 22.157875 -108.14085
70.425903 22.599054 -108.86619
71.028435 23.033304 -109.52705
71.56485 23.549885 -110.25155
72.101204 24.033962 -110.94341
72.687309 24.482706 -111.67472
73.272102 24.840282 -112.21227
73.717804 25.514763 -112.96196
74.006996 26.018105 -113.83953
74.597916 26.49124 -114.47415
75.118217 26.953917 -115.19733
75.454025 27.454012 -116.66695
76.054367 28.021021 -116.92574
76.186859 28.586847 -117.1862
76.966141 29.066135 -118.27613
77.580795 29.880785 -119.38681
31.45627 -15.562934 -53.202522
35.580978 -11.477167 -58.971092
35.709339 -10.890666 -59.949451
36.443451 -10.694649 -60.254772
40.422985 -6.740859 -65.682228
40.896263 -6.0112524 -66.783615
43.719814 -2.5801923 -71.201218
44.08086 -2.627255 -71.817528
44.574387 -2.2197366 -72.502205
45.094704 -1.5053053 -73.12236
45.664955 -1.1050538 -73.878609
46.205475 -0.67787325 -74.509544
46.855293 -0.058053434 -75.223976
47.401619 0.32827684 -76.13147
47.734913 0.96019769 -76.533234
56.984055 9.9790554 -89.342384
59.369678 12.343267 -92.795105
59.752888 12.625353 -93.221161
60.380169 13.116868 -94.449867
60.887817 13.594715 -95.117577
61.219387 13.88244 -95.581078
62.178238 15.096612 -96.563324
61.887047 15.244934 -96.851067
67.540939 20.563494 -104.30531
72.92849 25.59211 -111.15548
73.237129 25.730452 -111.69398
73.702042 26.159176 -112.25539
73.94236 26.485207 -113.37016
74.672844 27.272827 -114.06647
74.663635 27.563627 -114.88559
75.15506 28.055046 -115.18056
75.843445 28.993431 -116.08086
76.361122 29.361115 -116.65691
31.313782 -14.696373 -52.686993
35.463772 -10.64325 -58.480576
36.291595 -9.7391815 -59.675392
40.286926 -5.8613801 -65.14846
40.759769 -5.1699238 -66.282784
41.362442 -4.214489 -66.929108
41.568733 -4.0621667 -67.413811
42.089531 -3.5244386 -68.244255
42.629642 -3.0590587 -68.826462
43.213451 -2.5377018 -69.591026
43.705334 -2.1053681 -70.316048
44.202396 -1.6355655 -71.007713
44.735844 -1.138369 -71.702728
45.254345 -0.65195751 -72.403503
45.778065 -0.164994 -73.089882
46.318523 0.3165305 -73.796173
46.860687 0.80681741 -74.482437
47.381485 1.2881228 -75.196686
47.855217 1.7573161 -76.037285
48.219933 2.3172836 -76.601395
48.763714 2.8992467 -77.32048
49.264606 3.3876681 -78.025406
49.75013 3.8950162 -78.747078
50.247467 4.38727 -79.461098
50.751476 4.8944645 -80.172615
51.000488 5.2956581 -80.583168
56.840454 10.832847 -88.841499
59.237553 13.187538 -92.281509
59.609375 13.473883 -92.706696
62.032616 15.94496 -96.067207
61.710632 16.140038 -96.342857
67.402809 21.420298 -103.80447
72.769798 26.346716 -110.73212
72.929077 26.529066 -110.92752
73.579323 26.67931 -111.89355
31.200468 -13.852484 -52.188946
35.286144 -9.797205 -57.940071
36.153408 -9.0966015 -59.215382
40.169788 -5.0657849 -64.677078
40.618835 -4.3404279 -65.802338
41.305122 -3.7011342 -66.571281
41.749733 -3.7129829 -67.06472
42.339378 -3.2147188 -67.772461
42.893917 -2.7060974 -68.470329
43.342457 -2.3024426 -69.050278
48.435387 3.635381 -77.519585
48.785385 3.9853833 -78.014565
49.207706 4.3176975 -78.598175
51.05537 5.7982235 -79.935844
50.892864 5.9361339 -80.219254
56.70908 11.678473 -88.347
59.098057 14.077216 -91.746895
59.33606 14.336044 -92.27639
61.884621 16.810341 -95.567062
61.602207 16.954056 -95.843948
67.255028 22.264477 -103.31875
72.631927 27.119413 -110.27235
72.75042 27.536125 -110.399
31.052002 -13.037823 -51.714806
35.237518 -9.0728292 -57.532261
36.110828 -8.4225101 -58.745262
40.087151 -4.217464 -64.137527
40.462166 -3.4801967 -65.32196
41.234905 -2.8603401 -66.092064
41.246887 -2.8102646 -66.250221
50.892193 6.6657143 -79.43782
50.752655 6.7886658 -79.71801
56.552723 12.544709 -87.85228
58.912033 15.002024 -91.235123
59.336754 15.254922 -91.653366
61.749393 17.65251 -95.069618
61.449486 17.799475 -95.354141
67.111961 23.123285 -102.81524
72.496582 28.096565 -109.70283
72.636192 28.269506 -109.9511
30.92321 -12.183208 -51.224567
35.078552 -8.2003984 -56.963615
39.431396 -3.268611 -63.170952
39.93755 -3.6424599 -63.784504
40.327522 -2.5871167 -64.759666
41.100494 -1.9795142 -65.570709
41.04488 -2.0265574 -65.818687
50.682076 7.5426698 -78.962029
50.612751 7.6436639 -79.21582
56.405701 13.401637 -87.364616
58.854042 15.769422 -90.705208
59.059624 16.119617 -91.25975
61.597107 18.512098 -94.577423
61.331207 18.673141 -94.819992
66.972679 23.970638 -102.31019
72.393097 28.821651 -109.2982
72.573425 29.12796 -109.45919
30.759237 -11.34264 -50.722137
34.907524 -7.3400998 -56.507401
39.141018 -2.8589909 -61.955265
40.21217 -1.8299394 -64.30349
40.921658 -1.1658509 -65.111603
40.895557 -0.90445232 -65.177979
50.535004 8.3763819 -78.480774
50.47263 8.4952621 -78.716011
56.266907 14.255108 -86.857544
58.592316 16.749447 -90.217522
59.072701 16.856018 -90.689713
61.442368 19.365446 -94.087593
61.188034 19.506208 -94.332161
66.834419 24.827204 -101.80731
72.253242 29.833233 -108.70604
72.389679 30.123005 -108.85408
30.628397 -10.432388 -50.21014
34.589302 -6.4907112 -56.088703
36.36528 -4.6347284 -57.536892
38.842255 -2.4077544 -61.538082
40.04435 -0.90565813 -63.741898
40.950977 -0.37903243 -64.578697
40.83614 -0.39719933 -64.861313
50.395718 9.2257099 -77.978714
50.3377 9.3496809 -78.211853
56.11618 15.116806 -86.372246
58.659546 17.507153 -89.634178
58.972282 17.935904 -90.073212
61.291939 20.226139 -93.588478
61.079304 20.333351 -93.824181
66.687302 25.686262 -101.30926
72.136086 30.516075 -108.30604
72.254723 30.814709 -108.42109
30.430956 -9.6502247 -49.728836
30.843 -8.8981752 -50.264385
31.349724 -8.40483 -50.969948
31.917513 -7.9358282 -51.617611
32.509876 -7.4012408 -52.343372
32.921429 -6.9093456 -53.062546
33.37825 -6.4217563 -53.794456
34.004559 -5.9204469 -54.458462
34.44175 -5.5700169 -55.515392
34.870461 -4.9295502 -56.22142
34.944572 -4.4554377 -56.85907
36.053669 -4.1963396 -57.376537
37.027412 -3.3725941 -58.297546
38.78751 -1.6375018 -61.094025
39.12051 -0.99060977 -61.528572
39.49786 -0.3771477 -62.387524
39.88969 -0.210316 -63.324215
40.657215 0.63720363 -64.039566
40.85754 0.5575316 -64.218208
50.273567 10.098563 -77.447876
50.198845 10.200905 -77.710091
55.975937 15.971108 -85.871834
58.388496 18.47554 -89.187553
58.771103 18.809565 -89.671646
59.748123 19.948112 -90.653748
60.043674 20.213238 -91.019753
60.41227 20.57226 -91.524712
61.131588 21.084846 -93.101227
60.916759 21.170601 -93.347076
66.542969 26.525658 -100.81995
66.865501 27.254364 -101.0917
67.31105 27.70188 -101.75179
67.806183 28.206152 -102.41657
68.078926 28.545589 -103.02384
68.905373 29.196278 -104.05925
69.261787 29.68399 -104.643
69.674072 30.061563 -105.08624
71.677414 31.477406 -107.44147
72.056709 31.456696 -107.89503
74.273132 34.173122 -110.98308
74.498131 34.298119 -111.23056
32.962765 -6.5372381 -53.08567
40.454617 1.3379412 -63.668465
50.054741 10.924734 -77.009003
50.055489 11.049953 -77.211884
55.935268 16.56246 -85.587631
56.29298 16.939575 -86.108795
56.777359 17.434061 -86.817589
57.275085 17.936087 -87.524673
57.770256 18.433207 -88.235977
58.170433 18.84026 -88.825966
58.800564 19.443104 -89.652977
59.294544 19.933947 -90.344574
59.78376 20.433468 -91.042847
60.266891 20.930841 -91.749496
60.80529 21.454269 -92.485565
60.897186 21.71051 -92.979126
66.473724 27.060688 -100.51706
66.509972 27.425346 -100.96076
66.923668 28.001431 -101.89996
67.540901 28.91231 -101.96558
68.08876 28.745884 -103.00099
68.514023 29.46402 -104.03094
69.106705 30.106699 -104.85448
69.617416 30.377409 -105.20702
70.559731 31.70973 -106.86543
71.416069 32.39106 -107.22772
71.901688 32.701675 -107.26574
73.71151 33.961502 -110.18631
73.392059 34.492054 -110.88559
40.242313 2.2645278 -63.1791
40.330967 2.030961 -63.454403
49.925659 11.844697 -76.459198
49.906219 11.907621 -76.708992
66.387039 29.087027 -100.71035
67.501945 29.504364 -101.58772
71.462555 33.212543 -106.36647
40.175945 3.0759363 -62.683693
40.190586 3.0905809 -62.804405
49.644127 12.690275 -76.03862
49.756062 12.761419 -76.21228
66.580238 30.080225 -100.64926
67.354973 30.348263 -101.07117
71.075111 33.975098 -106.14838
40.170033 3.8700275 -62.091019
39.985561 4.2855558 -62.104404
49.310097 13.523137 -75.664581
49.61898 13.604072 -75.714371
65.376465 30.026453 -98.710045
66.132019 30.232008 -99.939651
66.372047 30.984537 -100.104
67.196564 31.218073 -100.58441
71.085571 34.985558 -105.80361
39.933941 4.883935 -61.541019
49.047394 14.204531 -75.411583
49.466316 14.473336 -75.208252
65.774132 31.407457 -98.984413
66.354256 31.678158 -99.786766
67.094131 32.093616 -100.22269
71.045189 35.645176 -104.94147
39.698734 6.0987291 -60.883694
39.951248 5.4512415 -61.304401
49.111012 15.144338 -74.702057
49.325314 15.319345 -74.708694
65.682991 32.166313 -98.60656
66.14991 32.560249 -99.177925
66.968742 32.991611 -99.720406
70.750763 36.717419 -104.39148
39.491413 6.3414068 -60.858696
48.706055 16.056051 -74.343719
49.180492 16.174362 -74.207108
65.18232 32.182304 -97.747177
65.542229 32.98666 -98.125992
66.051277 33.447815 -98.673721
66.84893 33.828129 -99.219208
70.61087 37.210857 -104.14146
39.183357 7.4833517 -60.198341
39.643711 7.2437029 -60.254402
48.559608 16.909605 -73.843719
49.035728 17.034582 -73.703751
64.347412 32.780735 -96.146629
64.845428 33.525414 -96.738678
65.344666 33.711319 -97.576485
65.877258 34.250584 -98.221069
66.625717 34.610996 -98.601562
70.382111 38.232094 -103.65184
39.444748 8.5447435 -59.333694
47.011909 16.711899 -71.259529
48.120472 17.323912 -71.910645
48.549355 17.787807 -72.671555
48.890591 17.87438 -73.215218
64.388168 33.738159 -95.935791
64.714287 34.178558 -96.36351
65.18129 34.656281 -96.970818
65.771446 35.121441 -97.812042
66.465691 35.472569 -98.085838
70.430107 39.230099 -102.84147
39.165459 8.8654547 -59.162983
43.075813 13.87581 -65.370872
43.512184 14.128845 -65.708366
47.457695 17.474665 -70.77449
47.997135 17.709478 -71.64183
48.462326 18.217371 -72.375351
48.786087 18.465672 -72.858444
64.03743 34.587418 -95.088295
64.575058 35.001362 -95.874306
65.105797 35.43306 -96.582603
65.644249 35.911884 -97.308083
66.355431 36.311607 -97.586433
71.198311 41.498299 -104.08854
72.577591 42.277584 -105.81487
73.804375 43.804363 -107.26193
38.322567 9.2225599 -56.819481
38.287468 9.5874672 -57.414593
38.76894 9.992465 -57.955982
39.06757 10.417563 -58.541275
41.454369 12.254365 -62.077808
43.260139 14.245851 -64.948586
43.628605 14.642888 -65.518456
44.435436 15.43543 -66.135086
44.603741 15.828735 -66.657211
45.113613 16.503607 -67.459953
45.714394 17.089388 -68.150642
46.280033 17.561604 -68.798111
46.742035 18.072929 -69.462021
47.284809 18.33893 -70.292465
47.744629 19.115215 -70.846161
48.123287 19.529167 -71.452629
64.428352 35.942627 -95.358711
64.85083 36.434158 -95.894295
65.497246 36.829063 -96.732887
66.172905 37.003254 -97.201195
66.515472 38.065464 -98.159889
67.067978 38.389397 -98.762474
67.669838 38.864269 -99.536537
68.321037 39.121029 -100.07301
68.989731 39.689716 -100.84798
69.439728 40.039715 -101.41365
70.001228 40.876221 -101.6272
70.368385 41.143379 -102.87572
71.009811 42.034798 -103.5596
71.339386 41.996513 -104.04057
72.02874 42.403736 -104.84097
72.863472 43.313465 -105.7995
73.860443 44.160427 -107.25336
33.506115 5.5061092 -50.53286
37.172565 9.0725603 -55.900242
37.897972 9.4265385 -56.349194
38.963646 10.696971 -58.482025
43.257919 16.057917 -65.042625
45.960434 17.86043 -68.928169
47.325081 19.325075 -71.02877
48.116619 20.15486 -71.302719
63.844536 36.394524 -94.229713
64.280678 36.876122 -94.815018
65.011192 37.423676 -95.369896
65.562454 37.816784 -95.892265
66.095589 38.311718 -96.540009
66.58181 38.780407 -97.234268
67.089615 39.289608 -98.11335
67.522606 39.724766 -98.746208
68.075241 40.238388 -99.331406
68.697632 40.76125 -100.07184
69.370064 41.336716 -100.78151
69.617821 41.446381 -101.26281
71.413994 42.713978 -103.50066
76.428635 47.628628 -110.62173
33.352604 6.2894425 -49.962738
43.879673 16.779667 -64.092628
47.960373 20.996609 -70.801865
54.515537 27.415525 -79.173996
54.346165 27.450153 -79.410728
63.73925 37.264236 -93.79525
64.098984 37.498974 -94.329491
64.942566 38.059322 -94.949539
33.202412 7.1738329 -49.450314
42.677654 16.810978 -63.364819
43.275383 17.375378 -63.886566
47.828041 21.82917 -70.32164
54.081242 28.179485 -78.856575
54.296043 28.341936 -79.323303
54.838306 28.888908 -80.093803
55.335381 29.409512 -80.822495
55.783882 30.020235 -81.426392
56.271629 30.547804 -82.146339
56.778255 31.04752 -82.854988
57.2953 31.424679 -83.622742
57.806816 31.879559 -84.36528
58.300571 32.386253 -85.069168
58.687977 32.846302 -85.538895
63.532242 37.998894 -93.210022
63.959682 38.496033 -93.774406
64.811592 38.933491 -94.450417
33.105843 8.0439348 -48.963955
42.57465 17.874641 -62.544106
42.975906 18.425898 -63.567635
47.683041 22.740446 -69.790298
53.916489 28.869804 -78.445412
53.95467 28.956675 -78.622124
58.640926 33.569668 -85.143982
62.821098 37.921082 -92.035477
63.39027 38.760262 -92.701324
63.820004 39.209652 -93.280548
64.695038 39.76498 -93.933746
32.942852 8.8845119 -48.476414
42.565887 18.775879 -62.125175
42.997726 18.96439 -62.747162
44.284267 20.28426 -64.156845
44.538555 20.738548 -64.85788
45.133381 21.333376 -65.7491
45.022137 21.622129 -66.224617
46.095879 22.245874 -67.074913
46.627285 22.758526 -67.856918
47.090408 23.23016 -68.533112
47.503708 23.483204 -69.279671
53.763268 29.701647 -77.957993
53.803917 29.809853 -78.126831
58.493961 34.431053 -84.639351
62.875832 39.309158 -91.722359
63.208733 39.622059 -92.145676
63.702374 40.095913 -92.796471
64.520981 40.619385 -93.433357
32.705132 9.7289352 -48.062557
42.445511 19.295502 -61.807487
42.754978 19.954973 -62.642632
43.411045 20.111036 -62.916897
43.63427 20.834263 -64.086136
44.427837 21.327831 -64.696281
44.9464 21.546392 -64.917503
45.472027 22.247021 -65.959602
45.945896 22.688745 -66.574875
46.353889 23.292774 -67.464287
46.99921 24.016989 -68.20343
47.167366 24.339998 -68.413345
53.591721 30.55014 -77.472557
53.654732 30.661596 -77.631416
58.349995 35.280613 -84.139954
62.734779 39.994766 -91.280754
63.062801 40.466957 -91.652428
63.595387 40.970375 -92.301651
64.402321 41.464024 -92.922928
32.481236 10.495514 -47.66534
42.206207 20.306202 -61.102943
42.7593 20.809292 -61.799778
46.935997 24.968065 -67.860825
47.053036 25.010288 -68.042747
53.431877 31.397467 -76.980171
53.496704 31.524057 -77.138565
58.207222 36.14185 -83.635773
62.580498 41.030491 -90.714027
62.871689 41.369755 -91.073288
63.43779 41.833336 -91.755692
64.274673 42.363426 -92.504524
64.560913 42.560905 -92.623695
32.386414 11.390408 -47.106888
42.049084 21.186577 -60.626865
42.436222 21.59622 -61.537773
46.787174 25.808868 -67.366173
46.90065 25.961031 -67.463196
53.285698 32.259888 -76.473724
53.360649 32.372288 -76.631073
58.059071 36.993927 -83.139595
62.403122 41.765614 -90.195915
62.758484 42.103302 -90.641579
63.320827 42.553429 -91.305702
64.146538 43.163506 -91.956078
32.25304 12.428894 -46.608688
41.922058 22.027182 -60.116375
42.356285 22.356277 -60.622326
46.667175 26.664045 -66.864456
46.739876 26.778807 -67.012993
53.125111 33.121693 -75.977737
53.19342 33.243877 -76.140572
57.916798 37.842285 -82.640648
62.293865 42.693859 -89.687523
62.609375 42.999508 -90.054207
63.151619 43.554276 -90.688454
63.942425 44.033791 -91.399933
32.070992 13.308485 -46.058964
41.781395 22.779961 -59.678913
42.148426 23.271151 -60.199528
46.531044 27.513456 -66.362862
46.598141 27.591707 -66.530319
52.996319 33.959846 -75.477913
53.133816 34.271122 -75.726875
53.733505 34.965073 -76.3983
54.124424 35.457748 -77.110832
54.641094 36.041084 -77.888641
55.181324 36.581314 -78.585976
56.060966 37.294292 -79.345467
56.045971 37.745964 -80.120911
56.743706 38.07703 -80.548378
57.463409 38.646732 -81.31012
57.777756 38.670494 -82.149933
62.139946 43.484383 -89.243233
62.460228 43.867912 -89.516113
63.004116 44.35865 -90.176025
63.803627 44.867943 -90.917274
21.353882 3.2538781 -30.520311
21.637486 3.4464381 -31.045965
22.141895 3.9464371 -31.748753
22.664835 4.4493408 -32.457127
23.175388 4.946156 -33.155701
23.54084 5.4362926 -33.812656
24.153124 6.0571218 -34.609867
24.59234 6.4703031 -35.32901
25.076799 6.9685984 -36.015259
25.537079 7.4588933 -36.717129
26.079626 7.9588699 -37.448093
26.240248 8.2735786 -37.93829
32.01506 13.998387 -45.575306
41.616974 23.646975 -59.185246
42.145027 24.020248 -59.881481
42.705063 24.355072 -60.768654
43.202515 24.854038 -61.474747
43.705055 25.355064 -62.182858
44.241119 25.849045 -62.925236
44.705067 26.355076 -63.597092
45.205059 26.855068 -64.304184
45.705067 27.355076 -65.011299
46.228474 27.876272 -65.760124
46.479939 28.14464 -66.19696
52.812119 34.858868 -74.927582
53.057125 34.966045 -75.304276
53.655952 35.441238 -76.186508
54.124157 35.947224 -76.920845
54.897781 36.553329 -77.643471
55.103218 37.036545 -78.319313
55.912033 37.512024 -78.860779
56.166985 38.066975 -79.747757
56.86306 38.553047 -80.259377
57.539318 39.096451 -80.988953
57.76709 39.781116 -81.904526
57.842972 40.008083 -82.200432
61.385681 43.965675 -87.814651
61.830818 44.264141 -88.470459
62.349068 44.728577 -89.014122
62.895462 45.183384 -89.707764
63.691017 45.734314 -90.40535
15.924439 -0.7837007 -22.46542
16.392242 -0.2831215 -23.201012
16.940308 0.24030149 -23.918222
17.429304 0.72389597 -24.630844
17.899403 1.2279695 -25.335484
18.214478 1.5556512 -25.797237
21.389265 4.0225949 -29.902229
