# .PCD v0.7 - Point Cloud Data file format
VERSION 0.7
FIELDS x y z intensity normal_x normal_y normal_z curvature
SIZE 4 4 4 4 4 4 4 4
TYPE F F F F F F F F
COUNT 1 1 1 1 1 1 1 1
WIDTH 663
HEIGHT 1
VIEWPOINT 0 0 0 1 0 0 0
POINTS 663
DATA ascii
-36.700001 -62.240002 -6.3499999 0 0.95285112 0.30009609 0.044912871 0.091754444
-36.558998 -62.200001 -6.3899999 0 -0.67253137 0.47394475 -0.56839943 0.13926122
-36.5 -62.150002 -6.4299998 0 0.92544132 -0.37862042 0.014314342 0.044823736
-36.299 -62.110001 -6.5 0 0.71573687 0.69647938 0.051353324 0
-37.368999 -62.639999 -6.0900002 0 0.97793078 -0.17630798 0.11210196 0.026863635
-37.279999 -62.599998 -6.1199999 0 0.31700161 0.91897899 0.23449433 0
-37.25 -62.549999 -6.1399999 0 1 0 0 0.15960123
-37.118999 -62.509998 -6.1799998 0 0.86935902 -0.36025968 -0.33827195 0
-37.07 -62.470001 -6.21 0 -0.57306504 0.61584884 0.54067236 0.11398984
-37.02 -62.419998 -6.23 0 -0.6814841 0.72631866 -0.089668974 0
-36.950001 -62.369999 -6.2600002 0 0.99289286 0.097719185 -0.067931741 0.062769867
-36.84 -62.330002 -6.3099999 0 0.98528618 -0.023186333 0.1693325 0.053095862
-36.75 -62.279999 -6.3499999 0 0.70111638 0.71280169 0.018696427 0
-36.709999 -62.23 -6.3699999 0 -0.54098219 0.64151233 0.54387516 0
-36.580002 -62.189999 -6.4200001 0 0.57987046 0.62571776 -0.52175438 0
-36.41 -62.150002 -6.48 0 0.17166869 0.47411364 0.86356592 0.13352203
-36.330002 -62.09 -6.52 0 -0.34313339 0.29045847 0.89324874 0.18798271
-37.429001 -62.68 -6.0900002 0 -0.60100073 0.71199155 0.36313385 0.058996253
-37.359001 -62.630001 -6.1199999 0 1 -0 -0 0.1653747
-37.299 -62.59 -6.1500001 0 0.98557413 -0.066598579 -0.15559009 0.039129816
-37.200001 -62.549999 -6.1799998 0 0.33140522 0.7280221 0.60012865 0.15324046
-37.16 -62.5 -6.21 0 -0.420461 0.19916573 0.88518107 0
-37.09 -62.459 -6.23 0 0.94516248 -0.26373166 0.19264846 0.008726486
-37.009998 -62.41 -6.2600002 0 -0.041479334 0.99390864 0.10210297 0
-36.950001 -62.360001 -6.3000002 0 0.99861145 0.023514474 -0.047139946 0.068005085
-36.729 -62.330002 -6.3699999 0 0.70710677 0.70710677 -0 0
-36.77 -62.27 -6.3800001 0 0.96634722 0.25359887 -0.043136608 0.038266387
-36.66 -62.220001 -6.4200001 0 0.51165545 0.60249615 0.61254156 0.046687182
-36.52 -62.18 -6.46 0 -0.305821 0.58008057 -0.75497019 0.18573728
-36.368999 -62.130001 -6.5300002 0 -0.30876982 0.098543555 0.94601816 0
-36.400002 -62.07 -6.5300002 0 -0.12194215 0.18291321 -0.97553718 0
-37.470001 -62.720001 -6.0900002 0 -0.24422501 0.45792192 0.85478753 0
-37.418999 -62.68 -6.1199999 0 0.97951847 -0 0.20135413 0.04979429
-37.34 -62.639999 -6.1500001 0 0.44493315 0.82270694 0.35381889 0.069008604
-37.32 -62.580002 -6.1700001 0 -0.67266375 0.61800033 0.40693879 0
-37.238998 -62.540001 -6.1999998 0 -0.64984465 0.74081087 0.17000379 0.042705495
-37.189999 -62.490002 -6.23 0 0.0098313643 0.99296772 0.11797637 0
-37.058998 -62.450001 -6.2600002 0 0.89539677 -0.44504404 -0.014156468 0
-36.970001 -62.41 -6.3099999 0 -0.70449549 0.57639563 -0.41407022 0.087127574
-36.830002 -62.369999 -6.3499999 0 0.62683493 -0.38042107 0.67996907 0.048205238
-36.759998 -62.32 -6.3899999 0 0.94093806 -0.28255573 -0.18654166 0
-36.759998 -62.259998 -6.4099998 0 0.59876966 0.72578144 0.33869797 0
-36.618999 -62.220001 -6.46 0 -0.4999316 0.84450895 0.19202346 0.065994434
-36.479 -62.169998 -6.5 0 -0.16419208 0.87274402 -0.45973781 0
-36.380001 -62.119999 -6.5500002 0 0.51847583 0.20739034 -0.82956135 0
-36.389999 -62.060001 -6.5599999 0 -0.12194215 0.18291321 -0.97553718 0
-37.539001 -62.759998 -6.0900002 0 -0.72908753 0.6391111 0.2448844 0
-37.479 -62.720001 -6.1199999 0 -0.6854192 0.6165747 0.38734505 0
-37.429001 -62.669998 -6.1399999 0 0.90678686 -0.40944913 0.10044408 0
-37.380001 -62.630001 -6.1700001 0 -0.51110131 0.5749889 0.63887662 0
-37.299 -62.580002 -6.1999998 0 0.89472795 0.39549571 0.20747317 0
-37.229 -62.540001 -6.23 0 0.83841372 0.53154576 0.12050574 0.081904456
-37.16 -62.490002 -6.2600002 0 0.64365244 0.73351908 0.21831486 0
-37.080002 -62.450001 -6.3000002 0 0.37494427 0.77287191 -0.51194316 0
-36.900002 -62.41 -6.3499999 0 0.9581157 -0.27831712 -0.067483373 0.069057159
-36.779999 -62.369999 -6.4099998 0 0.66398185 0.66398185 0.34388399 0.11106984
-36.738998 -62.310001 -6.4299998 0 0.99680501 -0.023824211 0.076237477 0
-36.759998 -62.25 -6.4299998 0 0.66426069 0.73641312 -0.12827103 0
-36.609001 -62.209 -6.4899998 0 -0.61506653 0.78023231 -0.11371317 0.050943341
-36.439999 -62.16 -6.5500002 0 -0.014325596 0.99614221 -0.086576089 0.16571915
-36.389999 -62.099998 -6.5700002 0 -0.40273863 0.2562882 0.8787024 0
-36.429001 -62.040001 -6.5700002 0 0.97925806 -0.10209285 -0.17501633 0
-37.57 -62.810001 -6.0900002 0 0.26100999 0.76800084 -0.584849 0.10769399
-37.52 -62.759998 -6.1199999 0 0.48619914 0.81577033 -0.31325582 0
-37.509998 -62.709 -6.1399999 0 -0.66868603 0.56399757 0.48452634 0.077208273
-37.41 -62.669998 -6.1799998 0 0.99227786 -0.12403473 -0 0
-37.380001 -62.619999 -6.1999998 0 0.93946147 0.26756817 0.21405454 0
-37.279999 -62.580002 -6.23 0 0.14539896 0.10066081 -0.98423904 0
-37.238998 -62.529999 -6.2600002 0 0.90876162 0.3119055 -0.27724931 0
-37.130001 -62.490002 -6.3000002 0 -0.27882972 0.95992005 -0.028415762 0
-36.970001 -62.450001 -6.3499999 0 -0.25258201 0.93255574 -0.25795758 0.21200836
-36.900002 -62.400002 -6.3899999 0 0.46176103 0.87083149 0.16860984 0
-36.82 -62.349998 -6.4299998 0 0.082403541 0.92645121 0.36728433 0
-36.759998 -62.299999 -6.46 0 0.94370854 -0.33069518 0.0074070892 0.024719357
-36.709999 -62.240002 -6.48 0 -0 0.78820539 0.61541224 0.0042719524
-36.580002 -62.189999 -6.5300002 0 0.48539895 0.81411141 -0.31876412 0.16183804
-36.389999 -62.150002 -6.5999999 0 0.68902767 0.70824355 -0.15372728 0
-36.389999 -62.09 -6.5999999 0 -0.14446464 0.96213448 0.23114343 0
-36.41 -62.02 -6.6199999 0 0.90694427 0.31190032 0.28314358 0
-37.639999 -62.849998 -6.0900002 0 -0.4511928 0.6714536 0.58785641 0.089169376
-37.580002 -62.810001 -6.1199999 0 -0 1 -0 0
-37.539001 -62.759998 -6.1500001 0 0.83344483 0.50274307 -0.22938849 0
-37.5 -62.709 -6.1700001 0 0.4249846 0.89661384 -0.12438571 0
-37.439999 -62.66 -6.1999998 0 -0.68572754 0.41739935 0.59628481 0
-37.400002 -62.610001 -6.21 0 0.15047736 0.9662233 0.20921077 0.14823692
-37.289001 -62.57 -6.2600002 0 -0.36989677 0.92856842 -0.030612145 0
-37.16 -62.529999 -6.3099999 0 0.26114482 -0.0063877017 0.96527851 0.11139126
-37.039001 -62.490002 -6.3499999 0 0.88949734 0.43158346 0.15010051 0.059542842
-36.979 -62.439999 -6.3899999 0 0.99954855 0.0065952614 0.029312275 0
-36.91 -62.389999 -6.4200001 0 -0.34393239 0.89307034 0.2900618 0.10794272
-36.77 -62.349998 -6.46 0 0.59180391 0.018887354 -0.80586064 0
-36.738998 -62.290001 -6.4899998 0 0.84745556 0.38700354 0.36338323 0.040924348
-36.689999 -62.23 -6.52 0 0.80656886 -0.43934244 0.39550602 0.037518963
-36.509998 -62.18 -6.5700002 0 0.97466809 0.21533366 -0.060444541 0
-36.380001 -62.130001 -6.6300001 0 0.75751281 -0.018189222 -0.65256679 0.071868151
-36.418999 -62.07 -6.6399999 0 0.29012942 0.23210353 -0.92841411 0
-37.679001 -62.900002 -6.0999999 0 -0.39013514 0.57905078 0.71588743 0.050877482
-37.639999 -62.849998 -6.1199999 0 0.89739603 0.055393603 0.43773499 0.0034142938
-37.580002 -62.810001 -6.1500001 0 -0.73083282 0.53059292 0.42936531 0.022271695
-37.539001 -62.759998 -6.1799998 0 -0.070804171 0.97945762 0.18881112 0
-37.5 -62.709 -6.1999998 0 0.95760852 0.28707922 -0.023905123 0.079917513
-37.459999 -62.66 -6.21 0 -0.2749069 0.85496038 0.43985102 0
-37.380001 -62.619999 -6.2600002 0 0.8884275 0.45845139 -0.022780193 0
-37.289001 -62.57 -6.3000002 0 0.41705692 0.78424835 -0.45936704 0
-37.109001 -62.540001 -6.3499999 0 0.86387134 -0.45811361 0.20942338 0
-37.080002 -62.48 -6.3800001 0 -0.23280363 0.80925417 0.53936088 0.15061581
-36.970001 -62.43 -6.4200001 0 0.89251959 -0.096379161 0.44059044 0
-36.889999 -62.389999 -6.46 0 -0.59666437 0.77974266 -0.18971841 0
-36.849998 -62.330002 -6.48 0 -0.076336592 -0.012769379 0.99700034 0.032433316
-36.729 -62.279999 -6.5300002 0 0.998779 -0.0061274781 -0.049019825 0
-36.668999 -62.220001 -6.5599999 0 -0.021225497 0.8114453 -0.58404279 0.166875
-36.5 -62.169998 -6.6199999 0 0.82305056 0.54870039 0.14668229 0
-36.429001 -62.119999 -6.6399999 0 0.72262245 0.26143181 -0.6398986 0.00025714311
-36.450001 -62.049999 -6.6599998 0 0.70308632 0.62757218 -0.33439922 0.0027577842
-37.700001 -62.950001 -6.1199999 0 0.99565208 0.017166415 0.091554217 0
-37.679001 -62.900002 -6.1199999 0 0.35053992 0.87634164 0.33037418 0.16306813
-37.618999 -62.849998 -6.1500001 0 -0.58721483 0.80107701 -0.1159931 0
-37.609001 -62.799999 -6.1799998 0 -0.47572395 0.78619075 0.39444998 0
-37.558998 -62.75 -6.1999998 0 -0 1 -0 0
-37.509998 -62.700001 -6.23 0 0.70532209 0.70882541 -0.0093420129 0
-37.450001 -62.66 -6.2600002 0 0.95368403 -0.024980938 0.29977125 0
-37.330002 -62.610001 -6.3000002 0 0.63521683 -0.20009467 -0.74596363 0.006179621
-37.209999 -62.57 -6.3499999 0 0.83108592 -0.31410635 -0.45894819 0.005095874
-37.130001 -62.52 -6.3800001 0 -0.50573307 0.55292606 0.6621986 0.07731504
-37.039001 -62.48 -6.4200001 0 0.90779257 -0 0.4194195 0.054406494
-36.970001 -62.419998 -6.4499998 0 -0.67789578 0.71288431 -0.17959216 0.028463509
-36.868999 -62.369999 -6.4899998 0 -0.79925078 0.60088599 0.011583344 0
-36.868999 -62.310001 -6.5 0 0.89764547 0.059296403 -0.43671095 0.056143135
-36.75 -62.259998 -6.5500002 0 0.97995299 -0.19364978 0.046816431 0
-36.59 -62.209 -6.5999999 0 0.26314145 -0.071350254 0.96211535 0.20618825
-36.5 -62.16 -6.6399999 0 0.70410454 0.70690608 -0.067235447 0
-36.509998 -62.09 -6.6599998 0 0.19949467 0.30177107 -0.93227464 0.07281407
-36.488998 -62.029999 -6.6799998 0 -0.60174143 0.75331897 -0.26536343 0.055808242
-37.700001 -63 -6.1399999 0 0.99647331 0.006968345 0.083620138 0
-37.689999 -62.950001 -6.1500001 0 0.75911355 -0.4703491 0.45002025 0.020045066
-37.66 -62.900002 -6.1700001 0 0.94815874 -0.31401649 -0.048874158 0
-37.668999 -62.84 -6.1799998 0 0.86496145 0.043594632 -0.49994129 0.11620627
-37.599998 -62.799999 -6.21 0 -0.062609717 0.12449573 0.99024284 0.16727526
-37.57 -62.740002 -6.23 0 0.85989988 0.41291487 -0.30012262 0.0024460726
-37.488998 -62.700001 -6.2600002 0 -0.66951877 0.73517251 -0.10614152 0.032873064
-37.429001 -62.650002 -6.3000002 0 0.79552567 0.59941196 -0.088567473 0
-37.34 -62.599998 -6.3200002 0 0.68553168 -0.17657633 -0.70630533 0
-37.229 -62.560001 -6.3800001 0 0.91674888 -0.27145535 0.29305905 0
-37.130001 -62.509998 -6.4200001 0 0.99737108 -0.017574821 0.070299283 0
-37.039001 -62.459 -6.46 0 0.86893624 -0.48795724 -0.082749702 0.11817936
-36.950001 -62.41 -6.5 0 0.94377154 0.12450895 0.30625609 0.12509958
-36.950001 -62.349998 -6.5 0 0.0055193896 0.99900949 0.044155117 0
-36.82 -62.299999 -6.5599999 0 -0.31819233 0.91321188 0.25455385 0
-36.729 -62.25 -6.5999999 0 0.72241467 -0.46120146 0.51517975 0.11916155
-36.558998 -62.200001 -6.6599998 0 0.50097263 0.79842508 0.33398175 0
-36.57 -62.130001 -6.6700001 0 0.41950521 -0.021022044 -0.90750951 0.038941506
-36.57 -62.07 -6.6799998 0 0.45222133 0.49241877 0.74365288 0
-37.689999 -63.060001 -6.1500001 0 0.83349991 0.51197171 -0.20775667 0
-37.66 -62.950001 -6.1799998 0 -0.75925666 0.65079141 0 0
-37.668999 -62.889999 -6.1999998 0 0.97832674 -0.19566536 -0.067762889 0
-37.639999 -62.849998 -6.21 0 -0.68470889 0.6852172 -0.24829654 0.1544461
-37.609001 -62.790001 -6.23 0 0.0366126 0.98854017 0.1464504 0
-37.529999 -62.75 -6.2800002 0 -0.2083011 0.52643836 0.82430172 0.15600874
-37.488998 -62.700001 -6.3000002 0 -0.2987282 0.2987282 -0.90637904 0.28418353
-37.479 -62.639999 -6.3200002 0 0.65202636 -0.21620359 -0.72671705 0.11664614
-37.380001 -62.599998 -6.3499999 0 -0.64790922 0.63003314 0.42810273 0.12712322
-37.179001 -62.560001 -6.4299998 0 0.88561094 0.43146822 0.17183861 0.090122402
-37.109001 -62.509998 -6.46 0 0.99815089 -0.0050415951 -0.060575619 0.1413687
-37.009998 -62.459 -6.5 0 -0 1 -0 0
-37.009998 -62.400002 -6.5 0 -0.60367489 0.76450789 0.22606261 0.089777745
-36.918999 -62.349998 -6.5500002 0 -0.28117919 0.90554726 -0.31768295 0.19720057
-36.82 -62.290001 -6.5900002 0 0.97378474 -0.20648779 0.095425881 0.024023922
-36.66 -62.240002 -6.6399999 0 0.077439234 0.86856222 0.48949245 0
-36.630001 -62.18 -6.6700001 0 0.22541387 0.20293771 0.95289284 0.0094789471
-36.709999 -62.110001 -6.6599998 0 -0.058766451 0.19529235 0.97898287 0.15852046
-36.558998 -62.060001 -6.71 0 0.053205796 0.99494827 -0.085129268 0
-37.66 -63.119999 -6.1799998 0 -0.73198634 0.6752432 0.090789013 0
-37.118999 -63.150002 -6.3499999 0 -0.25576189 0.9644506 0.066490456 0.00593362
-37.59 -63.009998 -6.23 0 -0.42546451 0.67581397 0.60187656 0
-37.729 -62.939999 -6.21 0 0.67381388 0.73284066 0.094442904 0
-37.618999 -62.900002 -6.25 0 -0.45692196 0.75397736 -0.47195381 0.033735108
-37.639999 -62.84 -6.2600002 0 -0.28254983 0.18488744 0.9412663 0.083638608
-37.599998 -62.790001 -6.2800002 0 -0.71950573 0.68992978 -0.07942462 0.13425183
-37.549 -62.740002 -6.3099999 0 -0.67098445 0.51133066 0.53695506 0.12399197
-37.488998 -62.689999 -6.3200002 0 0.91364217 -0.12855268 -0.385658 0
-37.400002 -62.639999 -6.3699999 0 0.70322537 -0.26479477 -0.65981644 0
-37.34 -62.59 -6.3899999 0 -0.5847609 0.80490619 0.10089992 0
-37.139999 -62.549999 -6.46 0 -0.256668 0.96649963 -0 0.10538996
-37.130001 -62.490002 -6.4899998 0 0.33102927 0.75819093 0.5617528 0.072687879
-37.07 -62.439999 -6.52 0 0.8707155 -0.12455592 -0.47575232 0.15368539
-36.970001 -62.389999 -6.5599999 0 -0.79148412 0.58941925 0.16167195 0.13131697
-36.84 -62.330002 -6.5999999 0 0.81271619 0.3205969 -0.48652875 0.0041703745
-36.789001 -62.279999 -6.6399999 0 -0.23438267 0.91860104 0.31817734 0.11974864
-36.77 -62.220001 -6.6599998 0 -0.088045098 0.70436078 0.70436078 0
-36.729 -62.16 -6.6799998 0 0.18260427 0.89019579 -0.4173812 0
-36.66 -62.099998 -6.71 0 0.70631117 -0.43147722 0.5612058 0.027233535
-36.299 -62.040001 -6.8400002 0 -0.078520134 0.96351504 0.25587761 0.14819898
-37.618999 -63.18 -6.21 0 -0.45486662 0.88508528 0.098591782 0
-37.650002 -63.110001 -6.23 0 0.50858802 -0.055070616 -0.85924703 0.014649211
-37.450001 -63.09 -6.2800002 0 -0.27834159 0.66705996 0.69105494 0
-37.689999 -62.939999 -6.25 0 0.44721362 0.89442724 -0 0
-37.580002 -62.900002 -6.3000002 0 0.87502545 -0.44552237 0.18931521 0.051325381
-37.639999 -62.830002 -6.2800002 0 -0.52382684 0.66208827 0.53595197 0.0018319597
-37.599998 -62.779999 -6.3200002 0 0.89067149 0.43763542 -0.12320528 0
-37.549 -62.73 -6.3400002 0 0.80118716 0.52568603 0.28592551 0
-37.509998 -62.68 -6.3699999 0 -0.70244306 0.7073667 -0.078778654 0
-37.429001 -62.630001 -6.3899999 0 -0.53556782 0.69413882 0.48097649 0.086550623
-37.34 -62.580002 -6.4299998 0 -0.55503023 0.83124 0.031328142 0
-37.209999 -62.529999 -6.4899998 0 0.1327946 -0.11599642 0.98433244 0.076663949
-37.179001 -62.48 -6.5 0 -0.37076715 0.9287042 -0.0063514751 0
-37.049 -62.43 -6.5599999 0 0.78116918 -0.11998341 0.61268169 0
-36.950001 -62.369999 -6.5999999 0 0.81617254 0.31003958 0.48758361 0
-36.868999 -62.32 -6.6399999 0 0.84549445 0.1120183 -0.52210253 0
-36.830002 -62.259998 -6.6599998 0 0.73815066 0.031320427 -0.67390847 0.031791408
-36.84 -62.189999 -6.6700001 0 -0.13087334 0.53489494 0.83472133 0.11418712
-36.75 -62.139999 -6.71 0 0.84922093 0.48095018 0.21796969 0.070023708
-36.59 -62.080002 -6.77 0 0.69650757 0.22716334 -0.68064231 0.05587247
-37.630001 -63.23 -6.23 0 0.98030716 0.19704393 0.013099873 0
-37.650002 -63.169998 -6.25 0 -0.55062431 0.68939048 0.47069496 0
-37.679001 -63.110001 -6.25 0 0.76780528 -0.31410214 -0.55840385 0
-37.679001 -63.049999 -6.2600002 0 0.89708519 0.34503278 0.27602619 0
-37.689999 -62.93 -6.2800002 0 0.64357257 -0.16181391 -0.7480846 0.083252333
-37.59 -62.889999 -6.3200002 0 0.92348814 0.11442636 0.36616436 0
-37.668999 -62.82 -6.3200002 0 0.01560596 0.82711589 0.56181455 0
-37.599998 -62.779999 -6.3499999 0 -0.51511985 0.84757173 0.12756854 0.070701592
-37.539001 -62.720001 -6.3800001 0 0.81442815 -0.41190055 0.40871108 0.056077357
-37.470001 -62.68 -6.4099998 0 0.36230513 0.92454904 0.11808463 0
-37.41 -62.619999 -6.4299998 0 0.87393045 0.37265915 0.31204274 0
-37.32 -62.57 -6.48 0 -0.656205 0.71585995 -0.23861998 0
-37.259998 -62.52 -6.5 0 -0.58343983 0.73794383 -0.33917105 0.18852308
-37.130001 -62.470001 -6.5599999 0 -0.17362548 0.94569635 0.27479553 0.11461051
-37.02 -62.41 -6.5999999 0 0.90541553 0.15494992 0.39523819 0.055527888
-36.91 -62.360001 -6.6399999 0 0.058145214 0.88635147 0.45934743 0
-36.91 -62.299999 -6.6599998 0 0.19566542 0.86791521 0.45655033 0.055563342
-36.900002 -62.240002 -6.6799998 0 -0.51332957 0.79928762 0.3124615 0
-36.84 -62.18 -6.71 0 0.96974087 -0.22936985 0.083618373 0
-36.729 -62.119999 -6.75 0 0.95471162 -0.046217311 0.29392108 0.070430964
-37.59 -63.290001 -6.2600002 0 0.77412957 0.61580384 -0.14665966 0
-37.618999 -63.23 -6.2800002 0 0.98751897 -0.11771749 -0.10463777 0
-37.668999 -63.16 -6.2800002 0 -0.38207099 0.88136834 0.27786982 0
-37.679001 -63.099998 -6.2800002 0 0.89538354 0.21067877 0.39230442 0.10492773
-37.668999 -63.049999 -6.3000002 0 0.92765379 0.27067441 -0.25728166 0.15470779
-37.789001 -62.919998 -6.3000002 0 0.68392015 -0.045899775 0.72811157 0.0069000963
-37.77 -62.860001 -6.3099999 0 0.74766999 -0.097240321 0.65691233 0
-37.709999 -62.810001 -6.3400002 0 0.12545323 0.64385492 -0.75479287 0
-37.599998 -62.77 -6.3899999 0 -0.55326599 0.82865465 0.085019201 0.073912703
-37.509998 -62.720001 -6.4200001 0 -0.16032852 0.81497854 -0.5568704 0.2663779
-37.459999 -62.669998 -6.4499998 0 0.72625029 0.59536409 0.34366 0
-37.380001 -62.610001 -6.4899998 0 -0.65760177 0.75034052 -0.067446321 0
-37.289001 -62.560001 -6.52 0 -0.28357545 0.74404794 -0.60496092 0
-37.189999 -62.509998 -6.5700002 0 0.89548844 -0.36618483 -0.25300044 0
-37.109001 -62.459 -6.5999999 0 0.77556676 -0.11633501 0.62045336 0
-37.02 -62.400002 -6.6399999 0 -0.47577596 0.3587957 0.80305839 0.099410318
-36.988998 -62.34 -6.6599998 0 -0.16542082 0.31367069 0.93501157 0.050303482
-36.988998 -62.279999 -6.6799998 0 0.12663457 0.43942779 0.88930702 0.051513672
-36.970001 -62.220001 -6.6999998 0 0.31154031 0.79582578 0.51923388 0
-36.830002 -62.16 -6.75 0 0.21139629 0.21960683 -0.95240986 0.19580117
-37.57 -63.349998 -6.3000002 0 0.86966109 0.14175595 -0.47285813 0.0036052994
-37.59 -63.290001 -6.3099999 0 0.85543346 0.4207584 -0.30198655 0.10632844
-37.618999 -63.220001 -6.3099999 0 0.94683397 0.032012589 -0.32012591 0
-37.668999 -63.16 -6.3099999 0 0.67717046 0.72860116 -0.10286134 0
-37.668999 -63.099998 -6.3200002 0 -0.10082965 0.95788175 0.26887909 0
-37.700001 -63.040001 -6.3200002 0 0.60539854 0.64864123 -0.461256 0
-37.75 -62.970001 -6.3200002 0 0.77831727 -0.19855031 0.59565091 0
-37.738998 -62.919998 -6.3400002 0 0.66509253 0.69820321 0.26488531 0
-37.700001 -62.860001 -6.3699999 0 -0.45567536 0.479453 -0.74998981 0.055922177
-37.639999 -62.810001 -6.3899999 0 -0.74329102 0.46780553 0.47820121 0
-37.580002 -62.759998 -6.4299998 0 0.030901212 0.99799055 0.055316098 0.15132521
-37.529999 -62.709 -6.4499998 0 -0.68473434 0.61069602 0.39773023 0.16003552
-37.429001 -62.66 -6.4899998 0 0.87133199 -0.48007855 0.10151443 0
-37.359001 -62.599998 -6.5300002 0 0.5433147 0.66582674 0.51135498 0
-37.25 -62.549999 -6.5700002 0 0.89574325 -0.44245386 -0.043342419 0
-37.179001 -62.5 -6.5999999 0 0.99594361 -0.040240142 0.080480285 0
-37.058998 -62.439999 -6.6399999 0 0.73269814 0.25205931 -0.63215464 0.073321603
-37.07 -62.380001 -6.6599998 0 -0.52029705 0.70398086 0.48342732 0.051371925
-37.080002 -62.32 -6.6700001 0 0.60754645 0.69260293 0.38882962 0
-37.039001 -62.259998 -6.6999998 0 0.787305 -0.37282854 -0.49106994 0.12128486
-36.918999 -62.200001 -6.75 0 -0.51842308 0.57952595 0.62879831 0.17170495
-37.57 -63.41 -6.3200002 0 0.8070786 0.10948215 0.5802049 0.082711287
-37.580002 -63.349998 -6.3200002 0 0.86966109 0.14175595 -0.47285813 0.0036052994
-37.609001 -63.279999 -6.3400002 0 0.73996979 0.66752517 -0.082793817 0
-37.639999 -63.220001 -6.3400002 0 0.92159909 0.048143238 -0.3851459 0
-37.689999 -63.150002 -6.3400002 0 0.28956565 0.90694141 0.30595613 0
-37.66 -63.099998 -6.3499999 0 0.99904144 -0.0054295729 0.043436583 0
-37.720001 -63.029999 -6.3499999 0 0.78982151 0.57243073 0.2202387 0
-37.720001 -62.970001 -6.3699999 0 0.90059263 -0 0.43466407 0.022912605
-37.738998 -62.91 -6.3800001 0 0.99367839 -0.026881009 0.10899835 0.19012791
-37.668999 -62.860001 -6.4099998 0 0.92789781 -0.21284254 0.30611062 0
-37.66 -62.810001 -6.4200001 0 0.9023779 -0.41580155 0.11323959 0
-37.57 -62.759998 -6.46 0 0.040809821 0.99729002 0.06121473 0
-37.5 -62.700001 -6.5 0 0.80722249 0.33022738 0.48922572 0
-37.439999 -62.650002 -6.5300002 0 0.943546 -0.33124083 -0.00059930695 0.13157424
-37.330002 -62.599998 -6.5700002 0 0.84039068 -0.23723873 0.48730004 0.13363411
-37.25 -62.540001 -6.5999999 0 0.99671644 -0.019105786 -0.078685626 0.11050765
-37.179001 -62.490002 -6.6399999 0 0.061772838 0.13898888 0.98836541 0
-37.139999 -62.43 -6.6700001 0 0.48443127 0.68964171 0.53825694 0
-37.130001 -62.369999 -6.6799998 0 -0.060522757 0.24209103 -0.96836412 0
-37.139999 -62.299999 -6.6799998 0 0.11972643 0.36232302 -0.92433089 0.18124515
-36.988998 -62.25 -6.75 0 0.81410944 0.39541352 -0.42529267 0
-36.759998 -62.189999 -6.8200002 0 -0.49944538 0.86570525 0.033296358 0
-37.529999 -63.470001 -6.3499999 0 0.99660641 0.013042973 -0.081274472 0.084576167
-37.539001 -63.400002 -6.3499999 0 0.98114055 0.010250525 -0.19302365 0.081279211
-37.599998 -63.34 -6.3499999 0 0.94808811 0.275433 -0.15895195 0.0086417533
-37.630001 -63.27 -6.3699999 0 0.29617444 -0.11846977 0.9477582 0
-37.630001 -63.209 -6.3800001 0 0.96892029 -0.0077266372 0.24725239 0
-37.668999 -63.150002 -6.3800001 0 0.49613896 0.86824316 -0 0
-37.679001 -63.09 -6.3899999 0 0.68111974 0.68111974 0.26861063 0
-37.700001 -63.029999 -6.3899999 0 0.85290021 0.29410353 0.43135184 0
-37.650002 -62.970001 -6.4200001 0 0.74306118 0.041745011 -0.66792017 0
-37.679001 -62.91 -6.4299998 0 0.87128073 -0.38885322 0.29943779 0
-37.668999 -62.849998 -6.4299998 0 0.99684989 -0.009837334 0.078698672 0
-37.630001 -62.799999 -6.46 0 -0.71656954 0.69517946 0.05704036 0
-37.549 -62.75 -6.5 0 0.90163517 0.3977108 0.16994171 0
-37.488998 -62.689999 -6.5300002 0 -0.43673131 0.83891898 0.3247779 0.0095199505
-37.41 -62.639999 -6.5700002 0 -0.60613525 0.71500421 -0.34838063 0
-37.32 -62.59 -6.5999999 0 0.95494455 -0.071980745 0.28792298 0
-37.25 -62.529999 -6.6399999 0 0.85704374 -0.42205906 -0.29553717 0.051880177
-37.27 -62.470001 -6.6399999 0 0.39359689 0.028519737 -0.91884059 0.057688914
-37.25 -62.41 -6.6700001 0 0.23387446 -0 -0.97226679 0.19479652
-37.168999 -62.349998 -6.71 0 0.27235311 0.68065745 0.68009502 0.044089183
-37.058998 -62.290001 -6.75 0 0.96120512 -0.26039243 0.090998374 0.061396584
-36.939999 -62.23 -6.8000002 0 0.33525509 0.92228532 0.19233756 0
-37.52 -63.52 -6.3800001 0 0.8605119 0.49588823 0.11667956 0
-37.558998 -63.459 -6.3800001 0 0.93354458 0.27497452 -0.22996412 0.011180805
-37.57 -63.400002 -6.3899999 0 0.94935715 0.3102271 -0.049802337 0
-37.59 -63.330002 -6.3899999 0 0.89442718 0.44721359 0 0
-37.618999 -63.27 -6.3899999 0 0.89442718 -0.44721359 -0 0
-37.630001 -63.209 -6.4099998 0 0.62226248 0.70652723 -0.33705887 0
-37.679001 -63.139999 -6.4099998 0 0.95688689 -0.23383731 0.17230117 0
-37.650002 -63.080002 -6.4299998 0 0.70966071 0.69593799 -0.10978176 0
-37.679001 -63.02 -6.4299998 0 0.89790511 -0.40708134 -0.16748491 0
-37.700001 -62.959 -6.4299998 0 0.45321855 0.16920191 -0.87519348 0.013911644
-37.66 -62.91 -6.46 0 0.61696643 0.59655827 0.51329386 0.0091082864
-37.66 -62.849998 -6.48 0 0.89442718 -0.44721359 -0 0
-37.639999 -62.790001 -6.5 0 0.8064279 0.52406913 -0.27390802 0.16391543
-37.57 -62.740002 -6.5300002 0 -0.43600607 0.80493414 0.40246707 0
-37.479 -62.68 -6.5700002 0 -0.64562184 0.74726403 -0.15738149 0
-37.389999 -62.630001 -6.5999999 0 0.66179258 0.73934644 0.1240861 0
-37.299 -62.57 -6.6399999 0 -0.45689881 0.84232742 0.28588083 0
-37.34 -62.509998 -6.6399999 0 -0.16396925 0.1929137 0.96741843 0.061516277
-37.32 -62.450001 -6.6700001 0 -0.14928538 0.93953472 0.30820206 0
-37.229 -62.389999 -6.71 0 0.90441638 -0.41486993 0.099568777 0
-37.139999 -62.330002 -6.75 0 0.74088067 0.36448765 0.56413162 0
-37.02 -62.27 -6.8000002 0 -0.057541072 0.78531045 -0.61642241 0.12543786
-37.488998 -63.59 -6.4099998 0 0.99805176 0.04330438 0.044915993 0.016322054
-37.509998 -63.52 -6.4099998 0 0.77655047 0.54976135 0.30778533 0
-37.539001 -63.459 -6.4200001 0 0.94342977 0.29783699 0.14571671 0.055157375
-37.57 -63.389999 -6.4200001 0 0.94111574 0.33489844 -0.046305656 0.09570539
-37.618999 -63.32 -6.4200001 0 0.83396024 0.548985 0.055907939 0
-37.618999 -63.259998 -6.4299998 0 0.98594505 0.1627517 -0.037739523 0
-37.66 -63.200001 -6.4299998 0 -0.26916647 0.8685109 0.41621888 0.12607406
-37.66 -63.139999 -6.4499998 0 0.98692882 -0.03908629 0.15634516 0
-37.679001 -63.080002 -6.46 0 0.54099393 0.064939618 -0.83851558 0.088538088
-37.689999 -63.02 -6.46 0 0.80984664 -0.23592624 -0.53711003 0.064320602
-37.738998 -62.950001 -6.46 0 0.7643522 0.58146095 -0.27869144 0
-37.729 -62.889999 -6.48 0 1 -0 -0 0
-37.668999 -62.84 -6.5 0 0.8851195 -0.45485309 0.098346613 0
-37.668999 -62.779999 -6.5300002 0 0.24572127 0.0012446883 -0.96933979 0.045153532
-37.529999 -62.73 -6.5700002 0 0.35984719 0.87276518 0.32983482 0.10353792
-37.418999 -62.68 -6.6199999 0 0.90189356 -0.37504488 -0.21431135 0
-37.418999 -62.619999 -6.6399999 0 0.33053863 0.92664081 -0.17911159 0.088348389
-37.389999 -62.560001 -6.6599998 0 -0.012739558 0.99241149 0.12229975 0
-37.400002 -62.490002 -6.6700001 0 0.13870922 0.83832908 0.52722299 0.13205899
-37.289001 -62.439999 -6.71 0 -0.14714047 0.82097441 0.55167991 0.0576111
-37.229 -62.380001 -6.75 0 -0.46185932 0.87567842 0.14097275 0.05899512
-37.099998 -62.32 -6.8000002 0 -0.45356718 0.88941687 -0.056695897 0
-37.238998 -63.689999 -6.4899998 0 -0.35911337 0.59836781 -0.71623564 0.14346929
-37.289001 -63.610001 -6.4899998 0 0.62595785 0.30243123 -0.71882689 0.053200927
-37.5 -63.52 -6.4499998 0 0.39727649 0.76079011 0.51319569 0
-37.529999 -63.450001 -6.46 0 0.81916124 0.18014598 0.54453856 0.0085102972
-37.580002 -63.380001 -6.46 0 0.9654128 0.1894871 -0.17908874 0.014009417
-37.59 -63.32 -6.46 0 0.84687972 0.42836359 0.31511804 0
-37.630001 -63.25 -6.46 0 0.8714304 0.47453168 -0.1242128 0
-37.650002 -63.189999 -6.48 0 0.98639387 0.16439897 0 0
-37.668999 -63.130001 -6.48 0 0.014764169 0.99289036 -0.11811335 0
-37.709999 -63.060001 -6.4899998 0 0.81689948 0.28277287 -0.50270736 0
-37.720001 -63 -6.4899998 0 -0.52459848 0.7569207 0.38970175 0
-37.75 -62.939999 -6.5 0 0.9709627 -0.10581674 -0.21455614 0.16122362
-37.759998 -62.880001 -6.5 0 -0.43963337 0.80870837 0.39078525 0
-37.738998 -62.82 -6.5300002 0 0.65777737 0.046984099 -0.75174558 0
-37.738998 -62.759998 -6.5300002 0 0.94926256 -0.23301128 -0.21120232 0
-37.5 -62.720001 -6.6199999 0 0.84966141 0.14784981 0.50617772 0.033675749
-37.5 -62.66 -6.6399999 0 -0.34112397 0.24831697 0.90662736 0.033936661
-37.509998 -62.599998 -6.6399999 0 -0.17762679 0.26644018 -0.94734281 0
-37.470001 -62.540001 -6.6700001 0 -0.72548234 0.66581428 -0.17426053 0.12752648
-37.400002 -62.48 -6.71 0 -0.61445749 0.78578842 -0.070557386 0.14739709
-37.299 -62.419998 -6.75 0 -0.52940613 0.84482461 0.077463761 0.063847654
-37.200001 -62.360001 -6.7800002 0 0.38411063 0.76822126 0.51214749 0
-37 -63.779999 -6.5700002 0 0.86382616 0.37875324 0.33219028 0.075889878
-37.049 -63.709 -6.5700002 0 0.7074464 0.69842285 0.10828261 0
-37.27 -63.610001 -6.5300002 0 0.60633576 0.79321802 -0.056232747 0
-37.330002 -63.540001 -6.5300002 0 0.32805231 0.096381769 -0.93972987 0.058958273
-37.5 -63.450001 -6.5 0 0.65329933 0.58037287 0.48617625 0
-37.580002 -63.369999 -6.4899998 0 0.89454335 -0.44411072 -0.050574888 0
-37.59 -63.310001 -6.5 0 0.99704301 0.0047934758 -0.076695614 0
-37.630001 -63.25 -6.5 0 0.65834081 0.73636639 0.15605116 0
-37.668999 -63.18 -6.5 0 -0.48781434 0.63913077 0.5945999 0.0011173392
-37.679001 -63.119999 -6.52 0 0.52933717 -0.18556762 -0.82786882 0.074481569
-37.700001 -63.060001 -6.52 0 0.99947429 -0.0045825504 0.032096248 0.070983425
-37.720001 -62.990002 -6.5300002 0 0.97967827 0.046887767 -0.19501796 0.061023757
-37.738998 -62.93 -6.5300002 0 0.99193537 -0.056682024 -0.11336405 0
-37.759998 -62.869999 -6.5500002 0 -0.57493144 0.66402799 0.47803843 0.1130563
-37.77 -62.810001 -6.5500002 0 0.73552823 0.46401688 -0.4936462 0.054176264
-37.759998 -62.75 -6.5700002 0 0.3610535 0.8333205 0.41858974 0.10149848
-37.580002 -62.700001 -6.6399999 0 -0.096447319 0.23857725 -0.96632236 0.12110597
-37.539001 -62.639999 -6.6599998 0 0.81608748 -0.43042588 -0.38566157 0
-37.529999 -62.580002 -6.6799998 0 -0.34208003 0.70437378 0.62196368 0
-37.450001 -62.52 -6.71 0 -0.099839576 0.91073459 0.40074244 0.048565112
-37.359001 -62.459 -6.75 0 -0.6754427 0.61749059 -0.40309101 0.05671972
-37.259998 -62.400002 -6.8000002 0 -0.73047161 0.6531142 0.19963197 0
-36.988998 -63.849998 -6.5999999 0 0.95299321 0.2151347 0.21335667 0
-37.029999 -63.77 -6.5999999 0 0.93039709 0.26874256 0.24927628 0.073050648
-37.359001 -63.650002 -6.5300002 0 0.017402075 0.14857647 -0.98874784 0.048031148
-37.380001 -63.59 -6.5300002 0 -0.72898579 0.54211587 -0.41795951 0.05945788
-37.418999 -63.52 -6.5300002 0 0.88525784 -0.07732673 -0.45862752 0
-37.418999 -63.450001 -6.5599999 0 0.51674181 -0.18830973 -0.8351751 0.037966445
-37.59 -63.369999 -6.52 0 0.88051778 0.38754663 0.27293986 0.08850643
-37.59 -63.310001 -6.5300002 0 0.99598902 -0.025053114 -0.08589638 0
-37.618999 -63.240002 -6.5300002 0 0.98728061 -0.1017815 -0.1221378 0
-37.639999 -63.18 -6.5500002 0 0.90068036 0.32339865 0.29015207 0
-37.689999 -63.110001 -6.5500002 0 0.8831467 0.46645069 0.049754735 0
-37.709999 -63.049999 -6.5599999 0 0.83532161 0.54551619 0.068189517 0
-37.729 -62.990002 -6.5599999 0 0.92279154 0.35126045 -0.15834114 0.024521364
-37.75 -62.919998 -6.5700002 0 0.66125536 0.71666783 -0.22164986 0
-37.709999 -62.869999 -6.5900002 0 0.080256723 0.88063514 0.46694821 0
-37.808998 -62.799999 -6.5700002 0 0.049888272 0.99646133 0.067646481 0.17676036
-37.738998 -62.740002 -6.5999999 0 0.15275653 0.95668012 0.24784787 0.11439378
-37.668999 -62.689999 -6.6399999 0 -0.63863081 0.63911176 0.42858705 0.085291587
-37.59 -62.630001 -6.6799998 0 0.58212918 -0.057885434 -0.81103325 0.061793949
-37.539001 -62.57 -6.71 0 0.94776237 0.18768665 0.25791511 0.17043866
-37.429001 -62.509998 -6.75 0 -0.50253069 0.56269437 -0.6563825 0.051104389
-37.308998 -62.450001 -6.8099999 0 0.58124763 -0.23780674 0.77820247 0.11127292
-36.988998 -63.900002 -6.6199999 0 0.87491834 -0.47800684 0.077636771 0.12054142
-36.970001 -63.84 -6.6399999 0 0.89168751 -0.090470724 0.44351837 0.0031344392
-37.34 -63.709 -6.5599999 0 0.91615921 0.19979452 -0.34746873 0
-37.380001 -63.639999 -6.5599999 0 0.79455793 -0.094263293 -0.59982675 0.045495708
-37.450001 -63.57 -6.5599999 0 0.88101166 -0.35359526 -0.31430689 0
-37.450001 -63.5 -6.5700002 0 0.63296682 -0.17668569 -0.75374752 0.031265035
-37.459999 -63.439999 -6.5700002 0 0.62315255 -0.21767657 -0.75119758 0
-37.558998 -63.360001 -6.5700002 0 0.83228064 0.098258711 0.54557699 0.048949651
-37.599998 -63.299999 -6.5700002 0 0.61496532 0.78518397 0.072827339 0.025813321
-37.639999 -63.23 -6.5700002 0 0.94416779 -0.0086857332 -0.32935035 0.033639695
-37.639999 -63.169998 -6.5700002 0 -0.34997267 0.48746192 0.79993755 0
-37.679001 -63.099998 -6.5900002 0 0.18323281 -0.10688581 0.97724164 0
-37.689999 -63.040001 -6.5999999 0 0.94039738 -0.27605447 -0.19861181 0.11833587
-37.729 -62.98 -6.5999999 0 0.82824463 0.5471155 0.12114231 0
-37.759998 -62.91 -6.5999999 0 -0.73119771 0.67171049 0.11897454 0
-37.759998 -62.849998 -6.6199999 0 0.70742744 0.24651973 -0.66240042 0.12071966
-37.779999 -62.790001 -6.6199999 0 0.9205271 -0 0.39067861 0.054392066
-37.709999 -62.73 -6.6599998 0 -0.78887194 0.60131812 -0.12687612 0.012605366
-37.650002 -62.669998 -6.6799998 0 0.39997062 0.74539977 0.53329414 0
-37.599998 -62.610001 -6.71 0 0.40879688 -0.11960788 -0.90475368 0.12490552
-37.488998 -62.560001 -6.75 0 0.41394317 0.90917718 -0.045252949 0.06126811
-37.389999 -62.5 -6.8099999 0 0.0079628117 0.99860907 0.052120227 0
-38.59 -63.68 -6.21 0 0.89185292 0.45183712 0.021015679 0
-36.970001 -63.900002 -6.6700001 0 -0.83139098 0.52380198 -0.18552786 0.11306974
-37.289001 -63.779999 -6.5900002 0 0.58434552 0.71936125 -0.37557906 0.076799966
-37.368999 -63.700001 -6.5900002 0 0.93550843 0.2012679 -0.29037097 0.019298725
-37.41 -63.630001 -6.5900002 0 0.94662184 -0.26308721 -0.18625844 0.051447224
-37.450001 -63.560001 -6.5900002 0 0.80042171 0.52128309 -0.29595426 0
-37.479 -63.490002 -6.5999999 0 0.73787236 -0.26409256 -0.62112755 0
-37.479 -63.43 -6.5999999 0 -0.38035142 0.87405264 0.30226606 0
-37.539001 -63.360001 -6.5999999 0 0.8360309 0.36083093 0.4133442 0.060611133
-37.59 -63.290001 -6.5999999 0 -0.26189631 0.91214746 0.31527331 0
-37.639999 -63.220001 -6.5999999 0 0.98761803 -0.12608692 -0.093341947 0
-37.679001 -63.150002 -6.5999999 0 -0.71181649 0.49291062 0.50035638 0
-37.639999 -63.099998 -6.6300001 0 -0.48221156 0.80004752 0.35692561 0.15380815
-37.709999 -63.029999 -6.6300001 0 -0.57192576 0.66862816 0.4752233 0
-37.729 -62.959 -6.6399999 0 0.97262508 0.19684078 -0.12350795 0
-37.759998 -62.900002 -6.6399999 0 0.80985177 0.50981671 -0.29021895 0.058156945
-37.789001 -62.84 -6.6399999 0 0.98508358 0.036573727 0.16814475 0.094189078
-37.77 -62.779999 -6.6599998 0 0.82388026 0.56563574 -0.035743181 0
-37.700001 -62.720001 -6.6999998 0 -0.70928735 0.70470858 0.017241782 0.10298112
-37.618999 -62.66 -6.73 0 0.64495432 0.70088208 0.30462787 0
-37.539001 -62.599998 -6.77 0 -0.24236976 0.62119853 -0.74523109 0.042485218
-37.400002 -62.540001 -6.8200002 0 -0.37350634 0.75582987 0.5377863 0.081680894
-38.799 -63.700001 -6.1799998 0 -0.7093733 0.64695531 -0.27971122 0
-38.609001 -63.68 -6.25 0 0.94811839 0.24164106 -0.20659389 0
-37.009998 -63.880001 -6.6799998 0 -0.83139098 0.52380198 -0.18552786 0.11306974
-37.368999 -63.759998 -6.5999999 0 0.82858706 0.55959338 -0.01728474 0
-37.368999 -63.689999 -6.6199999 0 0.93820906 0.30047211 0.17169836 0
-37.389999 -63.619999 -6.6300001 0 0.80768991 0.55858284 -0.18873854 0
-37.470001 -63.549999 -6.6300001 0 0.95312166 0.19907379 0.22787866 0
-37.509998 -63.48 -6.6300001 0 0.95730746 -0.15446074 -0.24434467 0
-37.479 -63.419998 -6.6399999 0 0.84735072 -0.039410286 -0.52956921 0.076640449
-37.488998 -63.349998 -6.6599998 0 0.76753581 -0.26803172 -0.58227813 0.089862593
-37.618999 -63.279999 -6.6399999 0 0.97292352 -0.052344192 -0.22512203 0.12532519
-37.66 -63.209 -6.6399999 0 0.95298684 0.25376984 0.16558032 0
-37.650002 -63.150002 -6.6599998 0 0.85976893 -0.14979558 0.48821995 0.007762956
-37.668999 -63.080002 -6.6599998 0 0.50549781 -0.041434258 -0.86183244 0
-37.720001 -63.02 -6.6599998 0 -0.79227644 0.58035636 0.18837342 0
-37.738998 -62.950001 -6.6700001 0 0.95602036 0.23375754 -0.17715099 0.089394733
-37.77 -62.889999 -6.6700001 0 -0.8322717 0.49908876 0.24131764 0
-37.759998 -62.830002 -6.6799998 0 0.85975319 -0.1615006 0.48450181 0
-37.729 -62.77 -6.71 0 0.71404928 0 -0.70009536 0.066517666
-37.689999 -62.709 -6.7399998 0 -0.8164047 0.54721522 -0.18449616 0.061971467
-37.618999 -62.650002 -6.77 0 -0.50463271 0.86240882 -0.039961569 0.16509667
-38.868999 -63.75 -6.1799998 0 -0.4230147 0.87721586 0.22704841 0.14212488
-38.779999 -63.709 -6.21 0 0.92912179 -0.19083716 0.31672376 0.18227302
-38.599998 -63.68 -6.2800002 0 -0.041629542 0.0069382573 0.99910897 0
-37.308998 -63.82 -6.6399999 0 0.9183082 0.16955911 -0.35771453 0.0092816381
-37.330002 -63.75 -6.6599998 0 0.91224724 0.010391803 0.40950823 0.0069475244
-37.34 -63.689999 -6.6700001 0 0.8310653 -0.20441522 0.51724744 0
-37.439999 -63.610001 -6.6599998 0 0.77826029 0.59061927 0.21325992 0
-37.439999 -63.540001 -6.6700001 0 -0.44754985 0.88329512 -0.13960271 0
-37.5 -63.470001 -6.6700001 0 0.89186859 -0.4287785 -0.14394245 0.078591585
-37.529999 -63.400002 -6.6700001 0 0.82818663 -0.035188515 -0.55934662 0.029501276
-37.488998 -63.34 -6.6999998 0 0.86507702 -0.12391628 -0.48609319 0.057171483
-37.618999 -63.27 -6.6700001 0 0.86354482 -0.30277547 -0.40325841 0.11794776
-37.639999 -63.200001 -6.6799998 0 0.9033941 0.15056568 0.40150851 0
-37.650002 -63.139999 -6.6799998 0 0.6257872 0.73722875 0.25472355 0
-37.700001 -63.07 -6.6799998 0 -0.4145667 0.69877481 0.58296496 0.083231851
-37.709999 -63.009998 -6.6999998 0 0.87334514 -0.47789985 0.094233766 0
-37.75 -62.939999 -6.6999998 0 0.96769416 0.2182571 0.12622097 0
-37.759998 -62.880001 -6.71 0 0.79489505 -0.41138461 0.44598708 0
-37.738998 -62.82 -6.7399998 0 0.92734706 -0.038562097 0.37221012 0.022436937
-37.75 -62.75 -6.75 0 0.1077458 0.95175457 0.28732213 0
-37.650002 -62.689999 -6.7800002 0 0.19553958 0.26500463 0.94421226 0.051394261
-37.488998 -62.639999 -6.8499999 0 0.77689946 0.22982274 0.58618158 0.024025431
-39.080002 -63.77 -6.1500001 0 -0.32442233 0.27393439 0.90537846 0.17791383
-38.639999 -63.73 -6.3000002 0 -0.19728436 0.051740278 0.97897995 0.029924069
-38.618999 -63.68 -6.3099999 0 -0.63199162 0.72088337 -0.2844536 0
-37.34 -63.810001 -6.6799998 0 0.97050494 0.24079648 -0.011710467 0
-37.32 -63.75 -6.6999998 0 0.92029142 -0.29385659 0.25828668 0.059256874
-37.209999 -63.700001 -6.7399998 0 -0.30454743 0.87586945 0.37430432 0.039457247
-37.389999 -63.610001 -6.71 0 0.87709266 0.41138238 0.24793755 0.084773913
-37.359001 -63.540001 -6.73 0 0.76575935 -0.35893977 0.53364295 0.056401171
-37.529999 -63.459 -6.6999998 0 0.88060141 0.4403007 0.17514724 0
-37.52 -63.389999 -6.71 0 0.88237733 -0.45579758 -0.11687117 0
-37.509998 -63.330002 -6.73 0 0.83055395 -0.16767916 -0.53109676 0.0052467869
-37.599998 -63.259998 -6.71 0 0.80544615 0.49313039 0.32875356 0
-37.630001 -63.189999 -6.71 0 0.88964039 -0.44976261 0.079079144 0
-37.66 -63.119999 -6.73 0 0.28034049 0.90868986 0.30934125 0
-37.66 -63.060001 -6.7399998 0 0.4924449 0.11534079 0.86266708 0.096721724
-37.700001 -63 -6.7399998 0 0.97315222 -0.080815405 0.21550776 0
-37.738998 -62.93 -6.7399998 0 0.86499858 -0.27072987 0.42247227 0
-37.720001 -62.869999 -6.75 0 0.89285874 0.44642937 0.059195057 0
-37.729 -62.799999 -6.77 0 0.93984646 0.031884935 0.34010598 0
-37.709999 -62.740002 -6.7800002 0 0.23162819 0.92651504 -0.29651019 0.24533147
-37.41 -62.689999 -6.8899999 0 0.16354951 0.52197492 0.83713418 0.082832552
-39.039001 -63.84 -6.1799998 0 0.89204419 0.40943989 0.19135335 0
-39.039001 -63.779999 -6.1999998 0 -0.14165565 0.35825741 -0.92281377 0.074390262
-38.808998 -63.77 -6.2600002 0 0.55442458 0.34084624 -0.75923467 0.059118822
-38.799 -63.709 -6.2800002 0 0.93834084 0.21331175 0.27205604 0.12858114
-38.57 -63.689999 -6.3499999 0 0.6773783 0.30378574 0.66997969 0.018625671
-37.32 -63.810001 -6.71 0 0.99921805 -0.012503251 -0.037509751 0
-37.308998 -63.740002 -6.7399998 0 0.91645753 -0.28393653 -0.28193209 0.13257295
-37.279999 -63.68 -6.75 0 -0.46906084 0.639893 0.6087026 0.064056851
-37.418999 -63.599998 -6.7399998 0 0.60941952 0.74949127 0.25859389 0
-37.330002 -63.540001 -6.77 0 -0.53910452 0.76800746 0.34573221 0.087500796
-37.5 -63.450001 -6.7399998 0 0.9137789 0.304593 0.26875854 0
-37.529999 -63.389999 -6.7399998 0 0.98935527 0.040080804 -0.13989134 0.042586982
-37.529999 -63.32 -6.75 0 -0.38550359 0.89950812 0.2056019 0
-37.599998 -63.25 -6.75 0 0.89654434 0.37461224 0.23637661 0.047692936
-37.630001 -63.18 -6.75 0 -0.58415276 0.6238175 0.51924694 0
-37.639999 -63.119999 -6.77 0 0.066169433 0.80109292 0.59487122 0.23649399
-37.689999 -63.049999 -6.77 0 0.98667765 -0 0.16268697 0.096352875
-37.689999 -62.990002 -6.7800002 0 0.67946845 0.71764088 0.15268955 0
-37.720001 -62.919998 -6.7800002 0 0.85855007 0.4451741 0.2543852 0
-37.759998 -62.860001 -6.7800002 0 0.89283472 -0.095634244 -0.44011387 0.015224104
-37.729 -62.790001 -6.8099999 0 -0.58492905 0.61026061 -0.53426588 0
-39.200001 -63.869999 -6.1500001 0 0.29430962 0.047725886 -0.95451772 0
-39.099998 -63.830002 -6.1999998 0 0.53205025 0.33335477 -0.77832967 0.069392845
-38.789001 -63.830002 -6.3000002 0 -0.34035039 0.24580863 0.90760106 0
-38.918999 -63.75 -6.2600002 0 0.91592526 -0.16587472 0.36546746 0.056114994
-38.720001 -63.720001 -6.3400002 0 -0.12194215 0.18291323 0.97553718 0
-38.459999 -63.700001 -6.4299998 0 0.40293288 0.22260077 0.88774663 0.07827913
-37.32 -63.799999 -6.75 0 0.9745037 -0.047292992 0.21933049 0.034494456
-37.34 -63.73 -6.77 0 0.46181116 0.88330549 -0.080633692 0
-37.380001 -63.650002 -6.77 0 0.2965337 0.81880701 -0.49155137 0
-37.429001 -63.580002 -6.77 0 0.77450752 0.62003314 0.12528796 0
-37.450001 -63.509998 -6.7800002 0 0.80812395 0.58674955 -0.051582377 0
-37.509998 -63.439999 -6.7800002 0 0.85612482 0.51331276 -0.059668936 0.038919147
-37.539001 -63.369999 -6.7800002 0 -0.67246729 0.623546 0.39872059 0.031028917
-37.52 -63.310001 -6.8000002 0 -0.58550262 0.78011012 0.22048785 0
-37.59 -63.240002 -6.7800002 0 0.98939043 -0.080834627 -0.12071572 0.10013842
-37.66 -63.169998 -6.7800002 0 0.89620364 0.35668027 0.26381454 0.074522234
-37.668999 -63.099998 -6.8000002 0 0.88447595 0.44647282 0.13551478 0
-37.668999 -63.040001 -6.8099999 0 0.70928192 0.62255937 0.33066452 0.010394949
-37.709999 -62.970001 -6.8099999 0 -0.24937391 0.68508452 0.68444997 0.016606605
-37.709999 -62.91 -6.8200002 0 0.53138208 -0.055707909 0.84529853 0.045490108
-37.470001 -62.849998 -6.9099998 0 0.92381257 -0.25680768 -0.28393677 0.012938796
-39.209999 -63.919998 -6.1799998 0 0.46046835 -0.26237884 0.84801316 0.059203234
-39.168999 -63.880001 -6.1999998 0 -0.34799275 0.5442785 -0.76332301 0.13891031
-39.009998 -63.849998 -6.2600002 0 -0.70622259 0.64303714 -0.29623127 0.052266385
-38.830002 -63.82 -6.3200002 0 0.5662086 -0.16248479 -0.80808824 0.033685785
-38.880001 -63.75 -6.3200002 0 0.33575317 0.88255417 0.32919291 0.077707596
-38.759998 -63.709 -6.3699999 0 0.32456887 0.90027052 -0.29011741 0
-37.27 -63.860001 -6.7800002 0 0.72636932 0.67161787 0.14600389 0
-37.299 -63.779999 -6.8000002 0 0.018883815 0.98376268 -0.17847823 0.14732774
-37.32 -63.709 -6.8099999 0 0.75994396 0.47464183 -0.44407231 0.13049419
-37.359001 -63.639999 -6.8099999 0 0.98601222 -0.072872065 -0.1498985 0.08840958
-37.400002 -63.57 -6.8099999 0 0.55462641 0.83193958 0.016312541 0
-37.470001 -63.5 -6.8099999 0 0.32841715 0.51200217 -0.79372287 0.13231725
-37.509998 -63.43 -6.8099999 0 0.93722093 0.33041313 -0.11155311 0.063451901
-37.558998 -63.360001 -6.8099999 0 0.98217964 -0.18265347 0.04428206 0.034734763
-37.509998 -63.290001 -6.8400002 0 -0.70646328 0.70646328 0.042654388 0
-37.618999 -63.220001 -6.8200002 0 0.82107389 0.51107055 0.25425294 0.066931084
-37.630001 -63.150002 -6.8200002 0 -0.61491203 0.69399017 -0.37451431 0
-37.650002 -63.09 -6.8400002 0 0.81796783 0.15272923 0.55461907 0.045002513
-37.66 -63.02 -6.8499999 0 0.91164136 0.30362883 0.27698287 0.004092813
-39.209999 -63.990002 -6.1999998 0 0.9793191 -0.069593802 -0.18997571 0.034575082
-39.16 -63.939999 -6.23 0 0.91788483 0.28725585 -0.27380931 0.06995254
-39.109001 -63.889999 -6.25 0 0.040804088 0.8794651 0.4742111 0.051773213
-39.009998 -63.849998 -6.2800002 0 0.72987026 -0.33716539 -0.59465027 0.07460919
-38.988998 -63.799999 -6.3099999 0 -0.096315399 0.82934439 0.55037367 0
-38.900002 -63.75 -6.3499999 0 -0.41799876 0.90676093 0.055332009 0.0054955482
-38.738998 -63.720001 -6.3899999 0 0.43769494 0.65654242 -0.61430866 0
-37.27 -63.849998 -6.8200002 0 0.89293003 0.31557882 0.32107013 0.10832036
-37.330002 -63.77 -6.8200002 0 0.71952122 0.55639094 0.41559389 0
-37.380001 -63.700001 -6.8200002 0 0.8389203 0.49355045 -0.22939199 0.052071117
-37.400002 -63.630001 -6.8400002 0 0.6225425 0.68240231 -0.38310307 0
-37.450001 -63.560001 -6.8400002 0 0.79257107 0.59813458 -0.11860057 0
-37.470001 -63.490002 -6.8400002 0 0.98667967 0.072750576 0.14550115 0
-37.529999 -63.41 -6.8400002 0 0.79479122 0.58629847 -0.1567194 0
-37.549 -63.349998 -6.8499999 0 0.88684303 0.44998378 -0.10499621 0
-37.488998 -63.279999 -6.8800001 0 -0.70783162 0.70606202 0.021234952 0
-37.609001 -63.209 -6.8499999 0 0.77325296 0.59934872 0.20702891 0
-37.539001 -63.150002 -6.8899999 0 -0.61195976 0.55518061 -0.56327599 0.009395496
-39.349998 -64.019997 -6.1799998 0 0.97550821 -0.099999793 0.19591796 0
-39.330002 -63.970001 -6.1999998 0 -0.73852921 0.61365056 -0.27929828 0
-39.179001 -63.939999 -6.2600002 0 0.67892426 0.70468706 -0.20610201 0
-39.058998 -63.900002 -6.3000002 0 -0.075154647 0.53976601 -0.83845365 0.076795444
-39.039001 -63.849998 -6.3200002 0 0.93283892 -0.3465552 -0.0985443 0.12114288
-39.009998 -63.799999 -6.3400002 0 0.40175134 0.30903944 0.86202693 0.15989065
-38.849998 -63.759998 -6.3899999 0 0.53350955 0.80378968 0.26322937 0
-38.689999 -63.720001 -6.4499998 0 -0.72182393 0.68512106 0.09787444 0
-37.27 -63.830002 -6.8699999 0 0.87711036 0.14946334 0.45644078 0.053980224
-37.229 -63.77 -6.8899999 0 0.81049615 0.056895055 0.5829742 0.010201737
-37.368999 -63.689999 -6.8699999 0 0.99073863 -0.032591816 -0.13181262 0.12037224
-37.380001 -63.619999 -6.8800001 0 0.81723219 0.50956827 -0.2692059 0
-37.439999 -63.540001 -6.8800001 0 -0.28818557 0.39761508 0.87112075 0.11888719
-37.450001 -63.470001 -6.8899999 0 0.90785915 0.21742147 0.35849649 0
-37.558998 -63.400002 -6.8699999 0 0.40460438 0.88924032 -0.21341766 0
-37.549 -63.330002 -6.8899999 0 0.79448909 -0.11933317 -0.59543824 0.018373149
-39.380001 -64.07 -6.1999998 0 0.40173563 -0.048957374 0.91444606 0.050912168
-39.359001 -64.019997 -6.21 0 0.8849833 -0.31634793 0.34165576 0
-39.229 -63.990002 -6.2600002 0 -0.70224845 0.46999389 0.53474557 0.20786335
-39.179001 -63.939999 -6.2800002 0 0.67892426 0.70468706 -0.20610201 0
-39.099998 -63.889999 -6.3200002 0 0.37996477 0.80611795 -0.45365247 0.08308275
-38.979 -63.860001 -6.3699999 0 -0.69121879 0.57178575 0.44190231 0
-38.939999 -63.799999 -6.3899999 0 0.043567274 0.90728843 0.41824582 0
-38.82 -63.759998 -6.4299998 0 0.9252671 0.043073542 0.37686267 0.085686058
-38.66 -63.720001 -6.5 0 -0.34101805 0.91912764 0.19725882 0.084097758
-38.558998 -63.669998 -6.5300002 0 0.14167343 -0.12278365 0.98226923 0
-37.200001 -63.759998 -6.9299998 0 0.81049615 0.056895055 0.5829742 0.010201737
-37.580002 -63.380001 -6.8899999 0 0.88781911 0.36513123 -0.28010067 0
-39.450001 -64.120003 -6.1999998 0 0.24209103 0.060522757 0.96836412 0
-39.488998 -64.059998 -6.1999998 0 0.3134813 0.94859797 0.043488733 0
-39.330002 -64.029999 -6.2600002 0 0.68095094 0.72761512 -0.082958497 0
-39.27 -63.98 -6.2800002 0 0.88907987 0.070190527 -0.45233884 0
-39.189999 -63.939999 -6.3200002 0 0.023072828 0.99213159 -0.12305508 0
-39.118999 -63.889999 -6.3499999 0 0.84699953 0.50681037 -0.1604214 0.13802803
-39.07 -63.84 -6.3800001 0 -0.4010675 0.9106791 0.099036843 0.15077659
-38.959999 -63.799999 -6.4200001 0 0.91837084 -0.14824924 0.36690193 0.057075754
-38.799 -63.759998 -6.48 0 -0 1 -0 0.12190485
-38.689999 -63.720001 -6.52 0 0.70710683 0.70710683 -0 0
-38.668999 -63.66 -6.5300002 0 -0.055929545 0.9218387 0.38351688 0
-38.759998 -63.59 -6.5300002 0 0.79912013 0.15602757 0.5805707 0.18197505
-39.549 -64.160004 -6.1999998 0 0.93044943 0.30424663 -0.20420074 0.030721258
-39.450001 -64.120003 -6.23 0 0.71595961 0.53666067 -0.44653916 0.049775485
-39.400002 -64.080002 -6.2600002 0 0.89442718 0.44721359 0 0
-39.34 -64.029999 -6.2800002 0 0.82324606 0.47103253 -0.31685069 0
-39.289001 -63.98 -6.3200002 0 0.55298215 0.82037359 -0.14559531 0
-39.209999 -63.939999 -6.3499999 0 0.71724176 0.56354707 -0.40985239 0
-39.220001 -63.880001 -6.3499999 0 0.69608146 0.7096768 -0.10876273 0
-39.058998 -63.84 -6.4200001 0 0.79751003 0.60279328 0.02485746 0
-38.950001 -63.799999 -6.46 0 0.98688704 -0.0076255738 0.16123223 0.038730551
