# .PCD v0.7 - Point Cloud Data file format
VERSION 0.7
FIELDS x y z intensity normal_x normal_y normal_z curvature
SIZE 4 4 4 4 4 4 4 4
TYPE F F F F F F F F
COUNT 1 1 1 1 1 1 1 1
WIDTH 641
HEIGHT 1
VIEWPOINT 0 0 0 1 0 0 0
POINTS 641
DATA ascii
-36.330002 -65.940002 -6.6300001 0 0.756616 0.63299525 0.16385747 0.088412717
-36.209999 -66.279999 -6.6599998 0 0.8528415 0.52190858 -0.016517449 0.060699366
-36.220001 -66.25 -6.77 0 0.85938919 0.51110709 -0.014825438 0.073695652
-36.209999 -66.279999 -6.8699999 0 0.86752898 0.49726331 -0.011079296 0.061536178
-36.789001 -64.610001 -5.79 0 -0.18975647 0.35204676 -0.91654551 0.043752115
-36.650002 -64.970001 -5.8400002 0 0.17827579 0.65882945 0.73086357 0.083789118
-36.709999 -64.82 -5.98 0 0.25193396 0.84846562 -0.46544102 0
-36.039001 -66.610001 -6.5900002 0 -0.21892825 0.95139503 0.21660516 0.11406807
-36.109001 -66.419998 -6.73 0 0.66419291 0.69759881 -0.26870742 0
-36.09 -66.459 -6.8200002 0 0.48389378 0.84631181 -0.22271742 0
-36.080002 -66.510002 -6.9099998 0 0.8059178 0.58661211 -0.079891957 0
-36.82 -64.400002 -5.8200002 0 -0.099945404 0.21420604 0.97166181 0.0030504388
-36.459999 -65.349998 -6.0100002 0 0.77514875 0.30432394 -0.5536527 0.033482689
-36.439999 -65.400002 -6.0999999 0 0.5322808 0.61489099 -0.58188176 0.00064811704
-36.359001 -65.610001 -6.1799998 0 0.55821556 0.57022291 -0.60269487 0
-36.299 -65.779999 -6.25 0 0.39978412 0.90466219 -0.14750901 0.0065687355
-36.289001 -65.809998 -6.3499999 0 0.39997295 0.9038716 -0.15178204 0.0063965116
-36.009998 -66.57 -6.7800002 0 0.71109658 0.70200729 -0.039081447 0.0062098806
-36.02 -66.540001 -6.8899999 0 0.71259421 0.7001726 -0.044361018 0.0061114398
-36.75 -64.459 -5.8099999 0 -0.103216 0.15477365 0.98254341 0.0063434108
-36.529999 -65.040001 -5.8400002 0 0.46831921 0.63371748 0.61569411 0.041320488
-36.450001 -65.260002 -5.9000001 0 0.30111834 0.22168556 -0.92746067 0.041911796
-36.59 -64.879997 -6.0700002 0 0.87102789 -0.11436324 -0.47773573 0.19357575
-36.689999 -64.639999 -6.23 0 -0.83277529 0.5335924 -0.14752784 0.0089063719
-36.679001 -64.639999 -6.3400002 0 -0.71304941 0.61028397 -0.34512889 0
-36.668999 -64.68 -6.4299998 0 0.20501821 0.96285337 -0.17572993 0
-36.220001 -65.879997 -6.3200002 0 -0.15925522 0.10574909 0.98155737 0.0030009444
-36.039001 -66.360001 -6.4299998 0 0.63957787 0.46407184 -0.61284381 0.074692734
-35.970001 -66.529999 -6.5999999 0 -0.15094288 0.11970083 0.98126853 0.0038563011
-35.939999 -66.629997 -6.77 0 0.71489316 0.60626364 -0.34838513 0.014228431
-36.689999 -64.5 -5.79 0 -0.23117237 0.18829362 0.95451808 0
-36.459999 -65.099998 -5.9299998 0 0.4649345 0.016533013 0.88519067 0.055033214
-36.639999 -64.620003 -6.0999999 0 -0.5091483 0.82362396 0.24982324 0.014869753
-36.66 -64.580002 -6.23 0 -0.79482073 0.59248441 -0.13123359 0.023416404
-36.650002 -64.610001 -6.3400002 0 -0.27524316 0.87212473 -0.40452403 0
-36.639999 -64.639999 -6.4299998 0 -0.58629888 0.63786453 -0.49938205 0.057352208
-36.168999 -65.889999 -6.3200002 0 -0.076273568 0.0012493547 0.99708617 0.001420585
-35.889999 -66.639999 -6.5700002 0 0.92985582 -0.11473729 0.34957638 0.035155278
-35.849998 -66.730003 -6.6399999 0 0.028035801 0.88124233 -0.4718326 0.19284524
-35.868999 -66.690002 -6.75 0 0.6906262 0.683631 -0.23597486 0
-36.668999 -64.43 -5.79 0 0 0.43592846 -0.89998132 0
-36.450001 -65 -5.9299998 0 0.29144681 0.93252349 0.21321052 0.040771574
-36.609001 -64.580002 -6.0999999 0 -0.70987332 0.61121464 0.34999502 0.058785662
-36.630001 -64.540001 -6.23 0 -0.48064536 0.82594252 -0.29461682 0
-36.618999 -64.559998 -6.3400002 0 -0.19051594 0.03764816 0.98096192 0.0044655534
-36.599998 -64.629997 -6.4299998 0 0.030370416 -0.0371194 0.99884921 0
-36.150002 -65.82 -6.3200002 0 -0.11607607 0.073514841 0.99051595 0
-35.880001 -66.540001 -6.5700002 0 0.09777502 0.49181914 -0.86519009 0.17162181
-35.849998 -66.610001 -6.6599998 0 0.98520637 0.1694904 0.025327044 0
-35.720001 -66.970001 -6.8699999 0 0.95644981 -0.25370157 -0.14435793 0.14047424
-36.609001 -64.459 -5.7800002 0 -0.12134466 0.085083984 0.98895711 0.00087925489
-36.380001 -65.080002 -5.9000001 0 -0.20245641 0.066528425 0.97702885 0.0013208385
-36.580002 -64.550003 -6.0900002 0 -0.52695823 0.76885623 0.36218101 0.01331004
-36.59 -64.519997 -6.21 0 -0.35599384 0.88850749 -0.28952202 0
-36.580002 -64.559998 -6.3200002 0 0.20368162 0.03428987 -0.97843659 0.0017742917
-36.558998 -64.599998 -6.4299998 0 -0.11730634 0.095872648 0.98845726 0.00073713437
-36.09 -65.849998 -6.3099999 0 -0.32825792 0.29789737 0.89638376 0.0011342535
-35.830002 -66.529999 -6.5700002 0 0.24324673 0.90708899 -0.34354126 0.077509522
-35.77 -66.720001 -6.9200001 0 0.30022708 0.95340043 0.029852493 0.006778067
-36.59 -64.379997 -5.79 0 -0.12139875 0.024898952 0.99229157 0.0014612111
-36.299 -65.160004 -5.8899999 0 -0.10676297 -0.0090666767 0.9942432 0.0097627435
-36.529999 -64.550003 -6.0900002 0 -0.50837874 0.81029165 0.29151079 0
-36.549 -64.510002 -6.21 0 -0.15377139 0.96379399 -0.21784277 0
-36.539001 -64.540001 -6.3200002 0 0.16912439 0.1522453 -0.97376496 0.0030213294
-36.529999 -64.559998 -6.4299998 0 -0.14476019 0.34742481 -0.92646664 0
-36.058998 -65.800003 -6.3099999 0 0.24253562 0 -0.97014248 0
-35.759998 -66.599998 -6.5500002 0 0.57128584 0.69278669 0.44008988 0.0253467
-35.668999 -66.849998 -6.6799998 0 0.077616356 0.96666849 -0.24398315 0.07965564
-35.700001 -66.769997 -6.8899999 0 0.32566983 0.74897748 0.57703716 0.018264823
-36.558998 -64.349998 -5.7800002 0 -0.11140617 0.024257235 0.99347889 0.00073166145
-36.279999 -65.099998 -5.8899999 0 -0.10773746 0.010042513 0.99412858 0.0097989831
-36.720001 -63.93 -6.1799998 0 0.95316851 0.23080884 0.19544059 0.024055578
-36.5 -64.529999 -6.3099999 0 0.030860674 0.15430336 -0.9875415 0
-36.488998 -64.559998 -6.4200001 0 -0.29583135 0.13456582 0.94571441 0.002060018
-36.009998 -65.809998 -6.2800002 0 -0.23942608 0.15961735 0.95770431 0
-35.709999 -66.620003 -6.5300002 0 0.66944152 0.0152928 0.74270725 0.15046486
-35.700001 -66.650002 -6.6199999 0 0.44177151 0.63620889 0.63251573 0.1546578
-35.66 -66.75 -6.8899999 0 0.32566983 0.74897748 0.57703716 0.018264823
-36.558998 -64.230003 -5.7800002 0 0.57199466 -0.071499333 0.81713521 0
-36.368999 -64.730003 -5.8200002 0 -0.055882026 0.070987567 0.99591058 0.0013506472
-36.238998 -65.07 -5.8699999 0 0.044385295 0.097647667 -0.99423075 0
-36.789001 -63.650002 -6.21 0 -0.52428663 0.67417824 -0.52019918 0.034403767
-36.759998 -63.709 -6.3200002 0 -0.60428703 0.52370268 -0.60047692 0
-36.459999 -64.510002 -6.3000002 0 -0.64456391 0.73952466 -0.194012 0
-36.459999 -64.519997 -6.4099998 0 -0.3618637 0.37960213 0.85144395 0
-35.979 -65.779999 -6.2800002 0 0.091624402 0.19088422 -0.97732705 0
-35.689999 -66.550003 -6.6300001 0 0.67890787 -0.25397664 -0.68889767 0.15267311
-35.679001 -66.589996 -6.71 0 0.81612545 0.22403185 0.53268087 0.23291115
-35.580002 -66.849998 -6.8499999 0 0.5871864 0.79524469 0.15099034 0.04524092
-36.549 -64.139999 -5.79 0 0.046987485 0.031146806 0.99840981 0.00024277277
-36.299 -64.809998 -5.8099999 0 -0.024019158 0.074575484 0.99692607 0.0017232338
-36.209999 -65.050003 -5.8899999 0 -0.12403473 -0 0.99227786 0
-36.75 -63.639999 -6.21 0 -0.48286325 0.68710136 -0.5428949 0
-36.720001 -63.700001 -6.3200002 0 0.0089259921 -0.022314981 0.9997111 0
-36.439999 -64.449997 -6.3099999 0 -0.6631586 0.74267483 -0.093030788 0
-36.400002 -64.540001 -6.3899999 0 -0.83127898 0.54002202 -0.13172531 0.15566471
-35.929001 -65.800003 -6.2800002 0 -0 -0 1 0
-35.630001 -66.610001 -6.5999999 0 0.23633441 0.1987962 0.95111835 0.20437095
-35.57 -66.769997 -6.6700001 0 -0.37402129 0.47812769 -0.79467106 0.02417147
-35.558998 -66.800003 -6.75 0 0.40725878 0.8275283 -0.38644171 0
-35.57 -66.769997 -6.96 0 0.30373716 0.12886845 0.94400036 0.036893755
-36.529999 -64.089996 -5.79 0 -0.18685669 0.14481395 0.97165507 0
-36.27 -64.779999 -5.8099999 0 -0.03270999 0.091915637 0.99522942 0.0013300624
-36.168999 -65.040001 -5.8699999 0 -0.24307424 0.32171586 -0.91510314 0
-36.720001 -63.59 -6.21 0 -0.22792137 0.34188202 -0.91168451 0
-36.689999 -63.669998 -6.3200002 0 0.0089259921 -0.022314981 0.9997111 0
-36.668999 -63.740002 -6.4299998 0 0.82934326 -0.40715888 0.38263738 0.014671891
-36.400002 -64.440002 -6.4200001 0 -0.5247038 0.71496075 -0.46207902 0.12937726
-35.91 -65.739998 -6.2800002 0 0.039923102 -0.047408681 0.99807739 0
-35.59 -66.599998 -6.5999999 0 0.16041636 0.076841734 0.98405385 0.22524004
-35.599998 -66.580002 -6.71 0 0.12208364 0.98459113 0.12520327 0.082439162
-35.479 -66.879997 -6.7399998 0 0.0051743407 0.12434045 0.99222618 0.00083183439
-35.509998 -66.809998 -6.9499998 0 -0.058095179 0.86620587 0.49629876 0
-36.509998 -64.019997 -5.79 0 0.0045955358 0.0013786607 0.9999885 0
-36.259998 -64.690002 -5.8200002 0 -0.0096082799 0.049898829 0.99870807 0.00090249995
-36.139999 -65 -5.8699999 0 -0.1699512 0.20889838 -0.96305662 0
-36.679001 -63.580002 -6.21 0 0.061988764 -0.11157978 0.99182022 0
-36.66 -63.639999 -6.3200002 0 -0 -0 1 0
-36.639999 -63.700001 -6.4200001 0 -0.57877225 0.79355466 -0.18786609 0.029658955
-36.630001 -63.709 -6.5300002 0 0.066896014 0.99463809 0.078866877 0
-35.880001 -65.720001 -6.2800002 0 -0.56533217 0.60066545 0.56533217 0
-35.779999 -65.970001 -6.3400002 0 0.2351471 -0.074386306 0.96910912 0.0095290719
-35.52 -66.660004 -6.5900002 0 0.41785249 0.90726787 -0.047584623 0
-35.539001 -66.620003 -6.6799998 0 0.60378176 0.79248673 -0.08609549 0
-35.459999 -66.82 -6.7399998 0 0.015518139 0.12427468 0.99212658 0.0006901212
-35.479 -66.790001 -6.9299998 0 -0.17930855 0.15465406 0.97156084 0.0070990599
-36.459999 -64.040001 -5.79 0 0.0045955377 0.00091910758 0.99998903 0
-36.25 -64.610001 -5.8200002 0 0.028056415 -0.063906282 0.99756145 0
-36.109001 -64.980003 -5.8899999 0 0.34188169 -0.22792107 0.91168463 0
-36.639999 -63.57 -6.21 0 -0.37243602 0.82484001 -0.42535919 9.4630312e-05
-36.630001 -63.610001 -6.3200002 0 0.019891834 0.10194557 0.99459106 0
-36.618999 -63.639999 -6.4299998 0 0.072206654 -0.047889106 0.99623936 0.0026877266
-36.59 -63.700001 -6.5300002 0 0.036291771 0.48993826 0.87100142 0
-35.84 -65.690002 -6.2800002 0 -0.046262383 0.18505743 0.98163819 0.0068959189
-35.789001 -65.839996 -6.3499999 0 0.1939967 -0.14517649 0.97020048 0.01050086
-35.5 -66.610001 -6.5999999 0 0.32401404 0.93760782 0.1261207 0
-35.479 -66.660004 -6.6799998 0 0.91234493 -0.13033408 -0.38812327 0.2106708
-35.439999 -66.760002 -6.75 0 0.4719646 0.61300415 -0.6336208 0.072425075
-35.479 -66.68 -6.96 0 -0.16182005 0.12158293 0.97930169 0.012988941
-36.380001 -64.139999 -5.79 0 0.012237006 0.052619129 0.99853969 0
-36.189999 -64.660004 -5.8200002 0 -0.0053949375 -0.015735233 0.99986166 0
-36.029999 -65.07 -5.8699999 0 0.1805279 0.6087693 0.77253449 0.18962355
-36.609001 -63.549999 -6.21 0 -0.43824068 0.83088738 -0.34288672 0.038277674
-36.599998 -63.580002 -6.3200002 0 0.25767848 -0.1684821 0.95142823 0
-36.57 -63.650002 -6.4299998 0 0.12937459 0.10109603 0.9864288 0.010178667
-36.558998 -63.709 -6.5500002 0 0.29587358 -0.038362131 0.95445651 0.0021738783
-35.82 -65.639999 -6.3000002 0 -0.075055607 0.36504316 0.92796016 0
-35.450001 -66.650002 -6.5900002 0 0.39628521 0.86970288 -0.29423615 0.096317671
-35.400002 -66.769997 -6.6599998 0 0.69573909 0.65291572 -0.29941297 0.022308968
-35.389999 -66.800003 -6.75 0 -0.004751734 0.15205546 0.98836052 0
-35.368999 -66.849998 -6.8200002 0 0.78235149 0.54630113 0.29913414 0.011747833
-35.400002 -66.779999 -6.9299998 0 0.47509098 -0.080157742 -0.87627816 0.017004009
-36.34 -64.160004 -5.79 0 -0.020103943 0.14969721 0.98852748 0.00047001842
-36.16 -64.620003 -5.8200002 0 -0.012050695 0.086363316 0.99619085 0
-36.058998 -64.910004 -5.9000001 0 0.039291888 0.26514167 0.96340859 0.0023130942
-36.02 -65.010002 -5.98 0 -0.29292753 0.90500498 -0.30847925 0.049787086
-36.57 -63.549999 -6.3400002 0 -0.38955742 0.87186658 -0.29680565 0
-36.539001 -63.639999 -6.4299998 0 0.089717031 0.20789726 0.97402751 0.0019251474
-36.529999 -63.68 -6.5500002 0 0.18533392 0.091215156 0.97843301 0.0052115303
-35.77 -65.669998 -6.2800002 0 -0.1756821 0.8081376 -0.56218272 0
-35.368999 -66.75 -6.5700002 0 0.89449102 -0.38015953 -0.23529661 0.023483289
-35.380001 -66.709 -6.6700001 0 -0.60717911 0.67247474 -0.42321533 0.16698785
-35.34 -66.839996 -6.7399998 0 -0.19647376 0.89659095 -0.39689136 0.06680657
-35.308998 -66.919998 -6.8099999 0 0.99730653 0.00096081605 -0.073339969 0.02464541
-36.27 -64.230003 -5.7800002 0 0.01167376 0.075097948 0.9971078 0.00075473607
-36.080002 -64.739998 -5.8200002 0 0.002369659 0.0014810369 0.99999607 0
-36.009998 -64.940002 -5.9000001 0 0.468723 0.60224825 -0.64621645 0
-36.52 -63.57 -6.3400002 0 0.17335372 -0.036468934 0.98418427 0.0053354762
-36.52 -63.59 -6.4499998 0 -0.80654275 0.54009783 -0.24038126 0.074185289
-36.509998 -63.630001 -6.5599999 0 -8.7860784e-08 0.27074564 0.9626509 0
-35.729 -65.68 -6.2800002 0 -0.011421941 0.18703429 -0.98228699 0
-35.639999 -65.910004 -6.3499999 0 -0.03932498 0.20679796 -0.97759306 0.0094970791
-35.349998 -66.68 -6.5700002 0 -0.11833338 0.18514834 0.97555995 0.00604726
-35.308998 -66.809998 -6.7399998 0 -0.13736057 0.82416344 -0.54944229 0
-35.32 -66.779999 -6.8499999 0 -0.69927371 0.50791991 0.50302458 0.040384397
-36.279999 -64.120003 -5.79 0 0.027654687 -0.089877732 0.99556875 0
-36.139999 -64.470001 -5.8499999 0 0.0022849552 0.15230688 0.98833054 0.0056954925
-35.959999 -64.959 -5.8899999 0 0.0059459531 0.12888549 0.99164164 0.0060674357
-35.959999 -64.970001 -6 0 -0.56459576 0.74650079 -0.35209107 0
-36.509998 -63.529999 -6.3400002 0 0.089630753 0.01244872 0.99589729 0
-36.488998 -63.580002 -6.4499998 0 -0.80654275 0.54009783 -0.24038126 0.074185289
-36.470001 -63.630001 -6.5599999 0 -0.69455367 0.64126009 -0.32616052 0
-35.709999 -65.639999 -6.3000002 0 0.15335573 0.27882859 0.94801718 0
-35.330002 -66.650002 -6.5900002 0 -0.54960191 0.83499783 0.026766326 0
-35.289001 -66.75 -6.6599998 0 0.3564077 0.81626403 -0.45462793 0.066671617
-35.279999 -66.779999 -6.75 0 -0.0057226424 0.10854909 0.99407464 0.00090611127
-35.34 -66.610001 -6.8899999 0 0.49185783 -0.059940331 -0.86860985 0.014197508
-36.238998 -64.120003 -5.79 0 -0.024615267 0.22168317 0.97480804 0.0084889419
-36.049 -64.620003 -5.8200002 0 0.014195208 0.033358738 0.99934256 0
-35.918999 -64.970001 -5.8899999 0 -0.0067521571 0.13233054 0.99118263 0.0060609085
-35.918999 -64.959 -6 0 -0.53392386 0.74568164 -0.39860278 0
-35.91 -64.980003 -6.0900002 0 -0.73162836 0.56881237 -0.37572926 0
-36.229 -64.169998 -6.3499999 0 0.036536928 0.26523104 0.96349227 0
-36.139999 -64.389999 -6.4200001 0 -0.55600071 0.73045689 -0.39660549 0
-35.668999 -65.639999 -6.3000002 0 -0.099819936 0.34936976 -0.93165267 0
-35.289001 -66.639999 -6.5700002 0 -0.012087468 0.43932807 0.89824539 0.017378392
-35.299 -66.639999 -6.6799998 0 -0.76344872 0.6115371 0.20777003 0.059776343
-35.238998 -66.779999 -6.7399998 0 -0.068736851 0.18110098 0.98105949 0.0063731628
-35.27 -66.709 -6.8499999 0 -0.17910083 0.98021805 0.084234208 0.074972741
-36.200001 -64.129997 -5.79 0 0.12064633 0.24125765 0.96293265 0.00038613487
-35.970001 -64.730003 -5.8200002 0 0.42752984 0.26553759 0.86412275 0.075628765
-35.91 -64.900002 -5.9000001 0 0.072645448 0.005264123 0.99734396 0.0037785298
-35.900002 -64.919998 -6.0100002 0 -0.61173928 0.68315375 -0.39884323 0
-36.439999 -63.5 -6.3499999 0 0.15960152 -0.12768117 0.97888958 0
-36.139999 -64.290001 -6.3200002 0 -0.14787792 0.70041054 -0.69825286 0.14384872
-36.130001 -64.330002 -6.4299998 0 0.14528409 -0.081290655 0.98604476 0.0026211718
-35.630001 -65.650002 -6.3000002 0 -0.10213524 -0.011101658 0.99470854 0
-35.27 -66.610001 -6.5999999 0 -0.019116716 0.59580433 0.8029021 0
-35.289001 -66.559998 -6.6999998 0 -0.020864548 0.184288 0.98265082 0.0055777519
-35.220001 -66.739998 -6.75 0 -0.037786242 0.1013737 0.99413055 0.0049562105
-35.200001 -66.809998 -6.8200002 0 0.88191026 -0.1007404 0.46052754 0
-36.189999 -64.07 -5.8099999 0 -0.015019721 0.099072181 0.99496692 0.011753242
-35.950001 -64.690002 -5.8200002 0 0.54060888 0.16450815 0.82503289 0.10478908
-35.859001 -64.940002 -5.9000001 0 0.072645448 0.005264123 0.99734396 0.0037785298
-35.880001 -64.870003 -6.0100002 0 -0.64853185 0.72608638 -0.22848389 0
-36.41 -63.5 -6.3499999 0 0.066939011 -0.07244911 0.99512327 0.0012044661
-36.130001 -64.230003 -6.3400002 0 -0.11355553 0.53283745 0.83856392 0
-36.09 -64.32 -6.4299998 0 -0.40637642 0.32082352 -0.85552937 0
-35.59 -65.660004 -6.3000002 0 -0.14164217 0.29035279 0.94637877 0.0063832668
-35.209999 -66.660004 -6.5700002 0 -0.10316222 0.10602526 0.98899758 0.031436205
-35.27 -66.519997 -6.71 0 0.026521733 0.033312436 0.999093 0.0072011845
-35.189999 -66.720001 -6.75 0 0.018790387 0.098406345 0.99496895 0.0047124033
-35.189999 -66.739998 -6.8499999 0 0.0057050972 0.17288995 0.98492461 0.033418238
-36.109001 -64.169998 -5.79 0 -0.089586504 0.050608307 0.99469239 0.0091996463
-35.859001 -64.830002 -5.9000001 0 -0.024689076 0.11103182 0.99351007 0.0054306863
-36.080002 -64.260002 -6.0999999 0 -0.42601195 0.29446104 0.85545689 0.0031030895
-36.380001 -63.470001 -6.3499999 0 -0.052112877 0.22582245 0.97277355 0
-36.080002 -64.25 -6.3400002 0 -0.073295474 0.41645154 -0.90619856 0
-36.07 -64.290001 -6.4299998 0 -0.51666838 0.73092175 -0.44587803 0.064892173
-35.549 -65.660004 -6.2800002 0 -0.227557 0.30419183 0.9250325 0.0054084919
-35.189999 -66.620003 -6.5900002 0 -0.13297199 0.63636595 0.75983995 0
-35.238998 -66.510002 -6.71 0 0.026521733 0.033312436 0.999093 0.0072011845
-35.150002 -66.720001 -6.75 0 0.027671229 -0.083013691 0.9961642 0
-35.16 -66.720001 -6.8499999 0 -0.058177963 0.038995203 0.99754429 0.0024753092
-36.109001 -64.059998 -5.79 0 -0.099391639 0.060492489 0.99320793 0.007468001
-35.91 -64.589996 -5.8400002 0 0.54829806 0.18058045 0.81655371 0.10409177
-35.889999 -64.660004 -5.9299998 0 0.65357864 0.060445435 0.75444108 0.053108681
-36.07 -64.18 -6.1199999 0 -0.41027239 0.28651848 0.865785 0.006598019
-36.330002 -63.5 -6.3499999 0 -0.013866173 0.055464689 0.99836433 0
-36.039001 -64.260002 -6.3200002 0 0.10134629 0.16268747 -0.9814589 0
-36.039001 -64.260002 -6.4299998 0 -0.18857171 0.83012545 -0.52472132 0
-35.549 -65.580002 -6.3099999 0 -0.30406058 0.39093503 0.86874449 0
-35.150002 -66.639999 -6.5700002 0 -0.28880042 0.45885351 0.84026659 0.0053345771
-35.189999 -66.529999 -6.6999998 0 -0.14887822 0.40850726 0.90053159 0
-35.118999 -66.720001 -6.75 0 0.037914213 -0.073120266 0.99660218 0
-35.109001 -66.739998 -6.8400002 0 -0.080937445 0.082924068 0.99326372 0.0043190243
-35.109001 -66.739998 -6.9299998 0 -0.86559361 0.47330782 -0.16348493 0.038316958
-36.080002 -64.07 -5.79 0 -0.10512315 0.048631862 0.99326938 0.0090567293
-35.808998 -64.769997 -5.9200001 0 -0.071722351 0.052974075 0.99601692 0.012141204
-36.039001 -64.160004 -6.1199999 0 -0.26483536 0.061090294 0.96235657 0.0062452951
-36.32 -63.439999 -6.3499999 0 -0.077790983 0.35005942 -0.93349177 0
-36.029999 -64.209 -6.3400002 0 -0.35632488 0.77743614 -0.51829094 0
-35.959999 -64.389999 -6.4200001 0 -0.0020082288 0.15413153 0.98804837 0
-35.52 -65.559998 -6.3099999 0 -0.31749621 0.48523006 0.81470728 0
-35.139999 -66.559998 -6.5999999 0 -0.36397266 0.33324769 0.86975276 0
-35.168999 -66.489998 -6.71 0 -0.14887822 0.40850726 0.90053159 0
-35.09 -66.699997 -6.75 0 -0.033307612 0.020817256 0.9992283 0
-35.09 -66.699997 -6.8499999 0 -0.12333445 0.18638612 0.9747045 0.0014043777
-35.080002 -66.720001 -6.9299998 0 0.86009312 -0.384518 0.33523971 0.050701059
-36.099998 -63.889999 -5.8099999 0 -0.14912292 0.12291609 0.98114932 0.0031412002
-35.75 -64.830002 -5.9000001 0 -0.07141538 0.068490133 0.99509239 0.010229111
-36.009998 -64.150002 -6.0999999 0 0.091755524 0.18351117 -0.97872603 0
-36.289001 -63.419998 -6.3499999 0 0.20065627 0.34398219 -0.9172858 0
-35.988998 -64.209 -6.3200002 0 -0.33164388 0.48249578 0.81068504 0
-35.470001 -65.57 -6.3000002 0 -0.14164612 0.035624705 0.98927611 0.00034707593
-35.25 -66.18 -6.3800001 0 0.63354075 -0.031934299 0.77305001 0
-35.168999 -66.389999 -6.4299998 0 0.72666484 0.069328673 0.68348509 0.0053647463
-35.099998 -66.57 -6.5700002 0 -0.30960602 0.18940146 0.93181074 0.016421366
-35.09 -66.610001 -6.6700001 0 0.89746368 0.058407724 0.43720397 0
-35.07 -66.650002 -6.75 0 -0.18291327 0.12194218 0.97553718 0
-35.058998 -66.690002 -6.8400002 0 -0.043482754 0.28807327 -0.95662063 0
-35.058998 -66.690002 -6.9299998 0 0.12309147 -0.12309147 0.98473197 0
-35.729 -64.800003 -5.9000001 0 -0.082896419 0.089930192 0.9924922 0.009293871
-35.988998 -64.120003 -6.0999999 0 0.24216042 0.020733822 -0.97001469 0.0078621898
-36.25 -63.43 -6.3400002 0 -0.242091 0.060522668 0.968364 0
-35.959999 -64.190002 -6.3200002 0 -0.10540895 0.52704579 -0.84327441 0
-35.459999 -65.529999 -6.3000002 0 -0.14980112 0.41195312 -0.89880711 0
-35.109001 -66.440002 -6.5 0 0.6677562 -0.14940357 0.72923249 0.0075416965
-35.07 -66.559998 -6.5700002 0 -0.51668096 0.4482967 0.72943187 0
-35.09 -66.519997 -6.6799998 0 -0.30501136 0.1084139 0.94615769 0
-35.049 -66.620003 -6.75 0 0.81425208 -0.39017582 0.42983302 0
-35.029999 -66.68 -6.8400002 0 -0.35882646 0.25790647 0.89706624 0
-35.029999 -66.68 -6.9299998 0 -0.030763611 -0.063153677 0.99752951 0.0025108764
-35.720001 -64.720001 -5.9000001 0 -0.2193896 0.14641082 0.96458912 0
-35.959999 -64.110001 -6.0999999 0 -0.34588313 0.15530989 0.92533439 0.0065669813
-36.200001 -63.459 -6.3200002 0 0.26863056 0.060098164 -0.96136659 3.7980248e-05
-35.929001 -64.18 -6.3200002 0 0.07417988 0.076108962 -0.99433631 0.0027136861
-35.439999 -65.480003 -6.3000002 0 0.63375038 -0.27160731 0.72428578 0
-35.349998 -65.709 -6.3499999 0 0.21846405 0.030701747 0.97536194 0.0095241126
-35.049 -66.529999 -6.5700002 0 -0.061898455 0.1237969 0.99037516 0
-35.07 -66.459 -6.6799998 0 0.76742083 -0.17008059 0.61817294 0.14017029
-35.029999 -66.57 -6.75 0 0.2789388 -0.01674021 0.96016294 0.0033777209
-35 -66.669998 -6.8200002 0 -0.10540895 0.52704579 -0.84327441 0
-35 -66.660004 -6.9299998 0 -0.13519445 0.024073416 0.99052656 0.0013288269
-35.84 -64.32 -5.8400002 0 0.9176715 -0.15784372 0.36464289 0.0073099672
-35.939999 -64.07 -6.0900002 0 -0.3372646 0.14669096 0.9299109 0.0043138186
-36.179001 -63.419998 -6.3200002 0 -0.24554469 0.077888139 0.96625108 0.0031690777
-35.91 -64.150002 -6.3099999 0 0.061795931 0.094157904 -0.99363756 0.0012061727
-35.418999 -65.43 -6.3000002 0 -0.34087685 0.1582752 0.92668867 0.00034669097
-35.279999 -65.809998 -6.3200002 0 0.055588968 -0.045809347 0.99740225 0.0098455632
-35.029999 -66.480003 -6.5700002 0 0.14762041 -0.098413609 0.98413563 0
-35.02 -66.510002 -6.6599998 0 0.55624312 0.81263649 -0.17382598 0
-35.02 -66.519997 -6.75 0 -0.55339658 0.78417492 -0.28075254 0.093865119
-34.970001 -66.650002 -6.8200002 0 -0.11377598 0.39821604 -0.91020823 0
-34.970001 -66.639999 -6.9200001 0 -0.24253556 0.58208537 -0.77611411 0
-36.179001 -63.330002 -6.21 0 -0.68476593 0.67554879 -0.27336684 0
-36.16 -63.380001 -6.3200002 0 0.05672304 -0.011344608 0.99832553 0
-35.868999 -64.150002 -6.3099999 0 -0.036644895 -0.059021477 0.99758387 0.0028045285
-35.400002 -65.400002 -6.3000002 0 -0.43941748 0.59152353 0.67602676 0
-34.988998 -66.480003 -6.5700002 0 -0.0089259921 0.022314981 0.9997111 0
-35.029999 -66.389999 -6.6799998 0 -0.17103003 0.20903671 -0.96283555 0
-34.988998 -66.480003 -6.77 0 -0.1090122 0.17979968 0.97764426 0.0088768564
-34.939999 -66.629997 -6.8200002 0 0.092792153 -0.10825751 0.98978281 0
-34.939999 -66.620003 -6.9200001 0 -0.024724845 0.14587657 -0.9889937 0
-35.830002 -64.169998 -5.8499999 0 0.64372408 0.52602106 0.55580676 0.029824313
-36.150002 -63.32 -6.21 0 -0.58156306 0.77304685 -0.25334361 0
-36.139999 -63.34 -6.3200002 0 -0.82762367 0.50742447 -0.23991591 0.013943389
-35.84 -64.139999 -6.3099999 0 -0.010306352 -0.074955776 0.99713355 0.0029820965
-35.359001 -65.419998 -6.2800002 0 -0.12348916 0.35631761 0.92616856 0
-34.979 -66.440002 -6.5700002 0 0.02498096 -0.029977148 0.99923837 0
-35.009998 -66.360001 -6.6999998 0 -0.12257028 0.15321283 0.98056221 0
-34.929001 -66.559998 -6.7399998 0 0.8263799 -0.33256751 0.45441732 0
-34.91 -66.610001 -6.8200002 0 -0.33699346 0.28082788 -0.89864963 0
-34.91 -66.610001 -6.9200001 0 -0.011623573 -0.024700094 0.99962729 0
-36.118999 -63.299999 -6.21 0 -0.31004483 0.92347431 -0.22598097 0.035162587
-36.109001 -63.330002 -6.3200002 0 -0.85650033 0.5076285 -0.093383312 0.01920885
-35.830002 -64.07 -6.3099999 0 -0.067228921 0.070883691 0.99521643 0.0010738518
-35.308998 -65.449997 -6.2800002 0 -0.13225625 0.09653987 0.98650306 0.015287479
-34.979 -66.339996 -6.5900002 0 0.36196128 0.77848381 0.51278347 0.05816935
-34.979 -66.349998 -6.6799998 0 0.041406892 0.10351723 -0.99376535 0
-34.91 -66.519997 -6.7399998 0 -0.1261602 0.25766617 0.95796221 0
-34.889999 -66.589996 -6.8200002 0 0.12587671 0.090999216 0.98786348 0.003928896
-34.889999 -66.589996 -6.9200001 0 -0.57999957 0.76124936 -0.28999984 0
-35.599998 -64.599998 -5.9000001 0 -0.80659306 0.57582587 0.13353716 0.025291875
-35.759998 -64.160004 -6.0700002 0 -0.32100564 0.83863741 0.44004861 0
-35.779999 -64.120003 -6.1799998 0 0.33781844 0.86190969 0.37814054 0
-35.830002 -63.990002 -6.3200002 0 -0.024922237 0.074766718 0.99688959 0
-35.32 -65.349998 -6.3000002 0 -0.13356537 0.40583318 0.90413469 0
-34.918999 -66.410004 -6.5700002 0 -0.021685012 0.21492817 0.97638905 0.0066869413
-34.950001 -66.330002 -6.6799998 0 0.011267113 0.12957181 -0.99150604 0
-34.889999 -66.5 -6.75 0 0.70144904 -0.42462298 0.57241994 0
-34.868999 -66.559998 -6.8200002 0 -0.67807502 0.66503513 -0.3129577 0
-34.859001 -66.57 -6.9200001 0 -0.56730783 0.7831617 -0.25459671 0
-35.599998 -64.510002 -5.9000001 0 -0.80659306 0.57582587 0.13353716 0.025291875
-35.720001 -64.190002 -6.0700002 0 0.85587227 0.311129 0.41313607 0.093131311
-35.738998 -64.129997 -6.1799998 0 0.17086549 0.92046535 0.35149476 0
-35.720001 -64.190002 -6.2800002 0 0.60111552 0.69061369 0.40213519 0.024008524
-35.289001 -65.330002 -6.3000002 0 0.08185342 0.28866959 0.95392334 0.0017173493
-34.880001 -66.419998 -6.5700002 0 -0.036929548 0.46161932 0.88630909 0
-34.918999 -66.330002 -6.6799998 0 -0.040918708 0.18413417 -0.98204899 0
-34.868999 -66.459 -6.75 0 -0.25592032 0.77024209 -0.58415049 0
-34.84 -66.529999 -6.8400002 0 -0.4339588 0.34326202 -0.83297706 0.016632017
-35.558998 -64.540001 -5.9000001 0 0.82580858 0.35979727 0.43426499 0.042723488
-35.57 -64.5 -6.0100002 0 -0.10964894 0.87881166 0.46439978 0
-35.720001 -64.110001 -6.1799998 0 0.15677993 0.93348902 0.32251874 0
-35.779999 -63.950001 -6.3200002 0 0.0182727 0.079181693 0.99669266 0
-35.679001 -64.230003 -6.3899999 0 -0.5958603 0.63216764 -0.49529251 0.024019085
-35.299 -65.230003 -6.3200002 0 0.050282169 0.11355966 0.99225795 0.0019981142
-34.84 -66.459 -6.5599999 0 0.14087616 0.44275364 0.88550729 0
-34.91 -66.290001 -6.6999998 0 -0.052925609 0.52925611 0.84680974 0
-34.77 -66.639999 -6.71 0 -0.57022357 0.41977337 0.70614123 0.00032990554
-34.808998 -66.529999 -6.8200002 0 -0.43107384 0.44885516 -0.78275442 0.0055529512
-35.470001 -64.690002 -6 0 0.5974021 -0.048023626 0.8005026 0.0027314906
-35.679001 -64.139999 -6.1799998 0 -0.085661657 0.83192587 -0.54823464 0
-35.689999 -64.110001 -6.3099999 0 0.013927823 0.98719949 -0.15888046 0
-35.209999 -65.389999 -6.2800002 0 0.054661494 0.21469477 0.97515041 0.0083108544
-34.849998 -66.349998 -6.5900002 0 -0.40293747 0.76553625 0.50159311 0
-34.859001 -66.330002 -6.6799998 0 0.79188699 -0.22009975 -0.56962365 0
-34.759998 -66.57 -6.73 0 0.93717545 -0.084333487 -0.33851162 0.038600594
-34.789001 -66.519997 -6.8400002 0 0.053990006 0.22945753 0.97182012 0
-35.439999 -64.699997 -6 0 -0.36349714 0.37404022 -0.85320783 0.0076234504
-35.539001 -64.410004 -6.1500001 0 0.74264103 0.54182869 0.39358106 0
-35.639999 -64.150002 -6.3099999 0 -0.52420163 0.41428837 -0.74402809 0
-35.618999 -64.230003 -6.3899999 0 -0.5958603 0.63216764 -0.49529251 0.024019085
-35.189999 -65.349998 -6.3099999 0 0.028447198 0.24772507 0.96841264 0.0081259729
-35.039001 -65.760002 -6.3200002 0 0.1478903 0.091926053 0.98472232 0.012910754
-34.808998 -66.360001 -6.5900002 0 -0.0078662112 0.40904325 0.91248113 0
-34.779999 -66.449997 -6.75 0 -0.20577419 0.61656737 -0.75993526 0.04922571
-35.418999 -64.669998 -6.0100002 0 -0.36349714 0.37404022 -0.85320783 0.0076234504
-35.368999 -64.800003 -6.0900002 0 0.68872958 0.72385138 -0.041118175 0
-35.618999 -64.139999 -6.3099999 0 0.70201093 0.52999717 0.47569284 0
-35.599998 -64.18 -6.4099998 0 -0.30345291 0.84682488 -0.43681115 0
-35.16 -65.349998 -6.3099999 0 0.12690875 0.16353594 0.97834051 0.011441991
-34.799 -66.32 -6.5999999 0 0.030097086 0.97716302 0.21034883 0
-34.738998 -66.489998 -6.8499999 0 -0.29588318 0.6952228 -0.6550712 0.027095107
-35.34 -64.790001 -6.0900002 0 0.92706674 0.36942393 0.063821197 0.12924874
-35.34 -64.809998 -6.1999998 0 0.71779978 0.68532652 -0.12284534 0.0033407095
-35.580002 -64.18 -6.4200001 0 -0.30345291 0.84682488 -0.43681115 0
-35.179001 -65.239998 -6.3200002 0 0.07160002 0.18845357 0.97946858 0.013062024
-34.729 -66.419998 -6.77 0 0.95521766 -0.2768656 0.10442559 0.041403346
-34.77 -66.32 -6.8899999 0 -0.37481704 0.78086877 -0.49975607 0
-35.299 -64.830002 -6.0900002 0 0.72375053 0.68160206 -0.10772125 0.0047955331
-35.279999 -64.900002 -6.1799998 0 0.65380985 0.70802367 -0.26689899 0
-35.150002 -65.25 -6.3200002 0 0.10178313 0.19275944 0.97595286 0.013503002
-34.799 -66.18 -6.7399998 0 0.85960346 0.42016622 -0.29076144 0
-34.799 -66.169998 -6.8400002 0 0.5705573 0.69890362 -0.4312751 0
-34.729 -66.349998 -6.8899999 0 -0.38095239 0.52380949 -0.76190478 0
-35.238998 -64.93 -6.1799998 0 0.7818464 0.61626476 -0.094519638 0.030433208
-35.168999 -65.099998 -6.2600002 0 0.085401148 0.597808 0.79707736 0
-35.109001 -65.269997 -6.3200002 0 0.14887911 0.13396345 0.97973913 0.017515017
-34.709999 -66.339996 -6.5999999 0 -0.038893335 0.74061126 0.67080712 0.042833146
-34.77 -66.169998 -6.7399998 0 0.85983568 0.42010283 -0.2901659 0
-34.729 -66.290001 -6.8899999 0 -0.38095239 0.52380949 -0.76190478 0
-35.179001 -65 -6.1799998 0 0.87334806 0.35097778 0.33775398 0.015249979
-35.179001 -65.010002 -6.2800002 0 0.37945017 0.66903061 0.63907397 0
-35.109001 -65.199997 -6.3499999 0 0.10638847 0.28132313 0.95369744 0.01964945
-34.77 -66.099998 -6.6599998 0 0.34888786 0.6898464 0.63434154 0
-34.720001 -66.25 -6.71 0 0.83828634 -0.064600967 -0.54138952 0.03347804
-34.700001 -66.290001 -6.9099998 0 -0.37481704 0.78086877 -0.49975607 0
-35.150002 -65.019997 -6.2800002 0 0.18017125 0.21019979 0.9609133 0
-35.039001 -65.330002 -6.3200002 0 0.15594921 0.41424006 0.89670789 0
-34.789001 -65.989998 -6.5900002 0 0.89241725 0 -0.45121101 0.17093308
-34.77 -66.029999 -6.6799998 0 0.061300114 0.46588084 0.8827216 0
-34.679001 -66.290001 -6.9099998 0 -0.37481704 0.78086877 -0.49975607 0
-35.139999 -64.980003 -6.2800002 0 0.15569285 0.3939501 0.90584934 0
-35.029999 -65.279999 -6.3400002 0 0.47469872 0.5836857 -0.65876555 0
-34.738998 -66.059998 -6.5700002 0 0.079594083 0.34178635 0.93640101 0
-34.720001 -66.110001 -6.6599998 0 0.34888786 0.6898464 0.63434154 0
-35.099998 -65.029999 -6.2800002 0 0.178965 0.23862 0.95447999 0
-35.058998 -65.139999 -6.3699999 0 0.40814596 -0.12699376 0.90404063 0.052021183
-34.738998 -65.980003 -6.5999999 0 0.070907615 0.38112837 0.92179894 0
-34.720001 -66.040001 -6.6799998 0 0.01253623 -0 0.99992138 0.0021155002
-34.599998 -66.349998 -6.8899999 0 0.24652049 0.7762059 -0.5802862 0.053148523
-35.09 -64.980003 -6.3000002 0 0.178965 0.23862 0.95447999 0
-34.700001 -66.029999 -6.5900002 0 -0.032239493 0.2172274 0.97558844 0.007225866
-34.689999 -66.040001 -6.6799998 0 0.062347971 -0.031173984 0.99756753 0
-34.609001 -66.269997 -6.8200002 0 -0.049245551 0.85491586 0.516424 0.17118612
-35.139999 -64.800003 -6.3200002 0 0.68096823 0.14327873 0.71815974 0.023038803
-34.679001 -66 -6.5900002 0 -0.017357213 0.23432238 0.97200394 0
-34.679001 -66.019997 -6.6799998 0 0.041594516 -0.041594513 0.99826837 0
-34.599998 -66.209 -6.9299998 0 -0.51231408 0.29126486 0.80789787 0.17023982
-34.979 -65.139999 -6.3699999 0 0.40814596 -0.12699376 0.90404063 0.052021183
-34.849998 -65.510002 -6.3899999 0 0.53055698 0.1398741 0.83602905 0
-34.679001 -65.949997 -6.5999999 0 -0.12339248 0.12347049 0.9846468 0.00078954914
-34.66 -66 -6.6799998 0 0.23862 -0.178965 0.95447999 0
-34.639999 -65.980003 -6.5900002 0 -0.72085398 0.57668316 0.38445544 0
-34.639999 -66 -6.6799998 0 0.34330893 -0.20979992 0.91549057 0
-34.830002 -65.419998 -6.4099998 0 0.53055698 0.1398741 0.83602905 0
-34.639999 -65.940002 -6.5900002 0 0.89442718 -0.44721359 -0 0
-34.630001 -65.949997 -6.6799998 0 -0.24077173 0.12038586 0.96308684 0
-34.720001 -65.650002 -6.46 0 -0.3303642 0.51206446 -0.7928741 0
-34.630001 -65.900002 -6.5999999 0 0.63607353 -0.20488442 -0.7439307 0.0050051766
-34.599998 -65.959 -6.6799998 0 0.062107008 -0.09316051 0.99371213 0
-34.720001 -65.589996 -6.46 0 -0.12398378 0.20506309 0.97086412 0.0011931406
-34.630001 -65.830002 -6.52 0 0.99281043 -0.040792722 0.11253164 0
-34.630001 -65.82 -6.6199999 0 -0.14133306 0.035333265 0.98933136 0
-34.599998 -65.919998 -6.6799998 0 -0.66376066 0.56899124 -0.48545927 0
-34.679001 -65.629997 -6.4499998 0 -0.3303642 0.51206446 -0.7928741 0
-34.639999 -65.75 -6.5300002 0 0.99649858 -0.023922959 0.080114096 0
-34.618999 -65.809998 -6.5999999 0 -0.14133306 0.035333265 0.98933136 0
-34.57 -65.93 -6.6799998 0 -0.054777816 0.15748625 0.98600078 0
-34.689999 -65.580002 -6.46 0 -0.12398378 0.20506309 0.97086412 0.0011931406
-34.599998 -65.809998 -6.6199999 0 -0.14133306 0.035333265 0.98933136 0
-34.529999 -65.989998 -6.6700001 0 0.1482076 0.15692571 -0.9764266 0
-34.700001 -65.470001 -6.4899998 0 0.5574559 0.2331257 0.79680318 0.0051732678
-34.580002 -65.790001 -6.6199999 0 -0.062257282 -0.062257282 0.99611652 0
-34.618999 -65.639999 -6.5300002 0 0.67807734 -0.12222903 0.72475588 0.001183617
-34.558998 -65.800003 -6.5999999 0 0.021109754 0.20959489 -0.9775604 0.079256162
-34.549 -65.769997 -6.5999999 0 -0.15408339 0.061633352 0.98613364 0
-34.509998 -65.870003 -6.7800002 0 -0.38827351 0.91113716 0.13810398 0.032707125
-34.618999 -65.529999 -6.6599998 0 0.74437678 0.47635919 0.46795848 0.019984994
-34.549 -65.730003 -6.8200002 0 0.61196214 0.044608977 -0.78962803 0.018526085
-38.479 -66.660004 -5.5700002 0 -0.04332513 0.17356259 0.98386931 0.015677292
-38.580002 -66.75 -5.5900002 0 0.63919061 0.19818734 -0.74307275 0.084682263
-36.729 -67.019997 -6.8400002 0 0.2723507 0.9617126 0.030560974 0.040950969
-36.689999 -67.019997 -6.98 0 0.53079003 0.73214763 0.4268744 0.041949227
-35.168999 -66.809998 -6.8499999 0 0.0057050972 0.17288995 0.98492461 0.033418238
-36.84 -67.099998 -6.1500001 0 0.3706874 0.88175714 -0.29171097 0.041419636
-36.59 -67.07 -6.3899999 0 0.9297502 0.35343567 0.10318792 0.065599076
-36.789001 -67.099998 -6.5700002 0 0.63073838 0.02181419 0.77568889 0.11495179
-36.57 -67.059998 -6.6799998 0 0.98293871 -0.065395124 0.17191571 0.01433761
-36.700001 -67.080002 -6.8400002 0 0.33153573 0.91600353 0.22587973 0
-36.580002 -67.059998 -6.96 0 0.47105899 0.74904776 0.46586582 0
-37.289001 -67.230003 -6.0599999 0 0.040809345 0.1466468 -0.98834676 0.0053615039
-36.830002 -67.160004 -6.1399999 0 1 0 0 0
-36.599998 -67.129997 -6.25 0 0.24504285 -0.1707613 0.9543556 0.057557575
-36.618999 -67.129997 -6.3899999 0 0.94780511 0.29263353 0.12661369 0.052744199
-36.738998 -67.150002 -6.5599999 0 0.64750421 0.68157429 -0.34087339 0
-36.539001 -67.120003 -6.6700001 0 0.75590175 0.57322413 0.31626973 0.024162138
-36.52 -67.120003 -6.8000002 0 0.669101 0.7264502 0.15676054 0.0014691846
-36.529999 -67.120003 -6.9499998 0 -0.40192276 0.8188448 0.40981871 0.26440352
-37.880001 -67.389999 -5.98 0 0.15303685 0.63918549 -0.75367212 0.032218736
-37.368999 -67.309998 -6.0700002 0 -0.19039096 0.3120296 -0.93080008 0
-36.939999 -67.239998 -6.1500001 0 0.6546728 0.069965541 0.75266743 0.010312544
-36.679001 -67.199997 -6.2600002 0 0.2195441 -0.18097626 0.9586699 0.057456072
-36.539001 -67.18 -6.3800001 0 -0.13083708 0.056174625 0.98981112 0
-36.668999 -67.199997 -6.5300002 0 0.6768918 0.66185671 -0.32212299 0
-36.529999 -67.18 -6.6599998 0 0.75117534 0.58267963 0.31019372 0.034665853
-36.418999 -67.160004 -6.7800002 0 -0.24883798 0.043211553 0.96758068 0.021607978
-36.459999 -67.169998 -6.9299998 0 0.34229603 0.32021242 -0.88334441 0
-37.418999 -67.379997 -6.0700002 0 -0.20774978 0.35518512 -0.91141844 0
-37.049 -67.32 -6.1700001 0 0.70427322 -0.0022608531 0.70992541 0
-36.609001 -67.25 -6.25 0 0.15787078 0.020674866 -0.98724335 0.01289041
-36.558998 -67.239998 -6.3800001 0 -0.18467012 0.12141204 0.97527236 0.0013796857
-36.580002 -67.25 -6.5300002 0 0.33319858 0.93994159 -0.074084558 0.019992655
-36.668999 -67.260002 -6.6799998 0 -0.44979525 0.88680989 -0.10607766 0.037415318
-36.41 -67.220001 -6.7800002 0 -0.54712492 0.4691126 -0.6932444 0.031989422
-36.400002 -67.220001 -6.9200001 0 0.79258037 0.57964832 0.18927281 0
-37.549 -67.470001 -6.0700002 0 0.15920474 0.72268212 -0.6725952 0
-37.049 -67.389999 -6.1500001 0 0.10589056 0.22690839 0.96814245 0
-36.580002 -67.309998 -6.23 0 0.054909866 0.098636851 -0.99360746 0.02204732
-36.549 -67.300003 -6.3699999 0 -0.19900744 0.21890819 0.95523572 0
-36.459999 -67.290001 -6.5 0 0.91248858 0.17398316 0.37026277 0.033590168
-36.82 -67.349998 -6.6999998 0 -0.3420606 0.6403082 -0.68774992 0.015846122
-36.459999 -67.290001 -6.7800002 0 0.6362471 -0.37213463 0.67579991 0.027670132
-36.389999 -67.279999 -6.9099998 0 0.99146831 -0.12175141 -0.04655201 0
-37.759998 -67.57 -6.0900002 0 0.12004346 0.42512134 -0.89714068 0.015182438
-37.080002 -67.449997 -6.1500001 0 0.04159452 -0.041594516 0.99826843 0
-36.75 -67.400002 -6.2600002 0 -0.032141153 0.17223825 0.98453075 0.0035522894
-36.558998 -67.360001 -6.3699999 0 -0.11377603 0.3982161 0.91020823 0
-36.418999 -67.339996 -6.4899998 0 0.87071741 0.49064362 -0.033466384 0.059942391
-36.52 -67.360001 -6.6399999 0 0.42464617 0.70698005 -0.565557 0.013663226
-36.75 -67.400002 -6.8200002 0 -0.23404929 0.70708525 -0.66727167 0
-36.5 -67.349998 -6.9299998 0 -0.65461642 0.75357687 -0.059994221 0.082896441
-37.189999 -67.529999 -6.1700001 0 -0.5108121 0.48299018 -0.71119016 0.012993908
-36.679001 -67.449997 -6.25 0 0.023088045 0.063396007 0.99772137 0.0084541691
-36.618999 -67.43 -6.3800001 0 0.040588919 0.091237389 -0.99500155 0.04674647
-36.400002 -67.400002 -6.4899998 0 0.9794386 -0.1767076 -0.097337008 0.043938283
-36.439999 -67.400002 -6.6300001 0 0.15156634 0.47635123 0.86609304 0
-36.75 -67.459 -6.8200002 0 -0.23404929 0.70708525 -0.66727167 0
-37.25 -67.610001 -6.1700001 0 0.072917834 0.66907001 -0.73961365 0.025135506
-36.77 -67.519997 -6.25 0 -0.36741912 0.57107234 -0.73408413 0.07537695
-36.618999 -67.5 -6.3699999 0 0.1901928 0.19052298 0.96308243 0.038751587
-36.429001 -67.459 -6.48 0 -0.86831129 0.48724517 -0.092885219 0.040482946
-36.380001 -67.449997 -6.6199999 0 0.72980064 0.12251019 -0.67259377 0.021172797
-36.389999 -67.449997 -6.75 0 0.9644773 0.24580032 0.096776962 0.0095221121
-36.650002 -67.5 -6.9299998 0 0.24001314 0.11172369 0.96431917 0.05425692
-37.429001 -67.709 -6.1999998 0 0.073389716 0.14133176 -0.98723829 0.0089121629
-36.868999 -67.599998 -6.2600002 0 0.041730464 0.25733039 -0.96542203 0.0033664096
-36.539001 -67.540001 -6.3499999 0 0.58148098 0.32241842 0.74694473 0.10416286
-36.429001 -67.519997 -6.4899998 0 0.95729631 0.09361513 -0.27353248 0.035165552
-36.400002 -67.510002 -6.6199999 0 0.95169586 0.25861299 -0.16551232 0
-36.368999 -67.510002 -6.75 0 0.18351114 0.091755569 0.97872603 0
-36.400002 -67.510002 -6.8899999 0 0.89904654 0.39131948 -0.19642934 0.0088411653
-37.529999 -67.790001 -6.21 0 0.25221166 0.54160839 -0.80190372 0
-36.868999 -67.660004 -6.2600002 0 0.16938791 -0.10936006 0.97946322 0.012662206
-36.529999 -67.589996 -6.3499999 0 0.65670162 -0.40307462 0.63739616 0.013290113
-36.41 -67.57 -6.48 0 -0.11033201 0.089724898 0.98983651 0.011469533
-36.389999 -67.57 -6.6199999 0 0.56946242 -0.10710073 0.81501043 0
-36.368999 -67.559998 -6.75 0 0.92464387 0.23643002 -0.29855424 0.080293022
-36.368999 -67.559998 -6.8899999 0 0.82704306 0.35339496 -0.43716332 0.061337963
-36.929001 -67.730003 -6.2600002 0 0.18378323 0.066795029 -0.98069471 0.026849218
-36.630001 -67.669998 -6.3499999 0 -0.46614504 0.39173651 -0.79325366 0.054303341
-36.488998 -67.639999 -6.48 0 0.59612519 0.79321551 0.12427362 0
-36.470001 -67.639999 -6.6199999 0 0.70325845 0.33860582 0.62511879 0
-36.330002 -67.610001 -6.7399998 0 0.95830512 -0.16553006 -0.23291889 0.088131651
-36.34 -67.610001 -6.8800001 0 0.85720235 0.35831708 -0.36988249 0.037731633
-37.029999 -67.809998 -6.2800002 0 0.3848812 0.064141549 -0.92073464 0.11205219
-36.580002 -67.720001 -6.3499999 0 0.41416731 0.15712607 0.89653599 0.029278899
-36.429001 -67.690002 -6.48 0 0.86586553 0.017415699 -0.49997345 0.18315236
-36.450001 -67.690002 -6.6199999 0 -0.12828253 0.28659067 0.94942582 0.1915133
-36.368999 -67.68 -6.75 0 0.97419298 -0.073229633 0.21350724 0.044671405
-36.330002 -67.669998 -6.8800001 0 0.8630091 -0.17232293 -0.47488952 0.027079822
-37.16 -67.889999 -6.2800002 0 -0.041594516 0.041594513 0.99826837 0
-36.618999 -67.779999 -6.3499999 0 0.079088472 0.10257017 -0.99157673 0.028873291
-36.618999 -67.779999 -6.5 0 0.14670518 0.30693749 -0.9403547 0.035396915
-36.66 -67.790001 -6.6399999 0 0.73524112 0.65766358 -0.16400969 0.014520816
-36.308998 -67.720001 -6.7399998 0 0.94769245 0.31865507 0.01838652 0.057059832
-36.34 -67.730003 -6.8800001 0 0.89063227 0.053312499 -0.45158815 0
-37.200001 -67.959 -6.2800002 0 -0.23209439 0.4486956 -0.86302054 0.059630077
-36.799 -67.870003 -6.3800001 0 0.19885282 0.27142268 0.94169384 0
-36.689999 -67.849998 -6.5 0 0.37326384 0.018441942 0.92754191 0.012131157
-36.59 -67.830002 -6.6300001 0 -0.027385209 -0.056291819 0.99803871 0
-36.349998 -67.779999 -6.7399998 0 -0.28036126 0.098677434 0.95480913 0.052366652
-36.368999 -67.779999 -6.8800001 0 -0.67800462 0.51144964 0.52794802 0
-37.32 -68.040001 -6.3099999 0 -0.61223727 0.51915359 -0.59635985 0.11516161
-36.700001 -67.910004 -6.3699999 0 0.025518872 0.38417494 -0.92290759 0.0089550298
-36.558998 -67.879997 -6.4899998 0 -0.087661155 0.72501254 -0.68313426 0.015070755
-36.580002 -67.879997 -6.6399999 0 0.85205215 0.38118127 0.35875878 0
-36.349998 -67.830002 -6.7399998 0 0.508807 -0.1419946 0.8490895 0.0081146825
-36.429001 -67.849998 -6.8899999 0 -0.52460539 0.2376686 0.81749785 0.12101663
-36.929001 -68.010002 -6.4099998 0 0.72739798 -0.3841849 0.56858957 0.029903119
-36.639999 -67.949997 -6.5 0 -0.72528118 0.67950219 0.11065275 0.069290876
-36.549 -67.93 -6.6300001 0 0.54512304 0.58331716 -0.6021477 0.19288287
-36.349998 -67.889999 -6.7399998 0 0.95172024 -0.077031635 0.29714426 0.089189954
-36.400002 -67.900002 -6.8899999 0 -0.15768571 0.95471531 0.25229713 0
-36.82 -68.040001 -6.3899999 0 0.014783351 0.21780215 0.97588098 0.0083631966
-36.700001 -68.010002 -6.5 0 0.13114209 -0.036649697 0.99068588 0.0033882579
-36.509998 -67.970001 -6.6300001 0 0.0079636741 0.76694798 -0.64165992 0.076511472
-36.418999 -67.949997 -6.75 0 -0.68965417 0.7073167 0.15517797 0.04626276
-36.59 -67.989998 -6.9200001 0 -0.4659698 0.71788245 0.51722044 0.079253651
-36.970001 -68.129997 -6.4200001 0 0.43983248 -0.18278754 0.87928152 0.13413402
-36.859001 -68.099998 -6.5500002 0 -0.42387575 0.74213755 0.51919276 0.030214572
-36.599998 -68.040001 -6.6399999 0 0.31885397 0.87976593 -0.35262448 0.11160936
-36.57 -68.029999 -6.7800002 0 0.079434015 0.52514708 0.84729612 0
-36.57 -68.040001 -6.9299998 0 -0.50465268 0.68237084 0.5288626 0.072743647
-36.929001 -68.169998 -6.4200001 0 0.47678497 0.82279176 -0.30933774 0.0082435803
-37.009998 -68.190002 -6.5700002 0 -0.19386162 0.11177499 0.97464049 0.0022000533
-37.009998 -68.190002 -6.71 0 -0.6955511 0.63440675 -0.33724877 0.029903391
-36.5 -68.07 -6.7800002 0 0.10075643 0.21333919 0.97176874 0.049909994
-36.82 -68.150002 -6.98 0 -0.44874197 0.58831835 -0.67269027 0.097413115
-37.049 -68.25 -6.4299998 0 -0.17389812 0.85767686 -0.48389041 0
-36.929001 -68.220001 -6.5599999 0 -0.010548688 0.012593891 0.99986506 0.004720178
-36.868999 -68.209 -6.6999998 0 -0.76627856 0.60943347 -0.2034898 0.10610607
-36.668999 -68.160004 -6.8099999 0 0.87583721 0.0086721284 -0.48252875 0.05995499
-36.889999 -68.209 -6.9899998 0 -0.28833255 0.88679379 -0.36119407 0
-37.229 -68.349998 -6.46 0 -0.39035755 0.83600783 0.38563168 0
-36.918999 -68.269997 -6.5700002 0 0.77892083 -0.04635204 0.62540698 0.02911415
-36.900002 -68.269997 -6.71 0 0.2538242 0.44771001 -0.8573966 0.05175703
-36.808998 -68.25 -6.8400002 0 -0.28887379 0.21153179 0.93370569 0.036710661
-37.029999 -68.349998 -6.5999999 0 0.068005942 0.8558957 -0.51265746 0.11989795
-36.859001 -68.309998 -6.71 0 0.48694155 0.75036895 -0.44702828 0
-36.868999 -68.309998 -6.8499999 0 -0.20028485 0.25314119 0.94647002 0.065451063
-37.109001 -68.419998 -6.75 0 0.24077167 0.12038591 -0.96308678 0
-37.130001 -68.419998 -6.8899999 0 -0.6609025 0.75045407 -0.0051563075 0.16455629
-37.168999 -68.480003 -6.7800002 0 -0.477413 0.86135048 0.17364396 0.076378383
-34.368999 -65.849998 -6.7399998 0 0.31379348 0.91690564 0.24661236 0.015481975
-34.34 -65.779999 -6.75 0 0.31379348 0.91690564 0.24661236 0.015481975
-34.168999 -65.620003 -6.73 0 -0.03656362 0.11053562 0.99319935 0.035236936
-34.189999 -65.129997 -6.8099999 0 0.064904608 0.25854903 0.96381521 0.059813622
-34.400002 -65.139999 -6.7399998 0 -0.1189851 0.07148473 0.99031931 0.053671543
-34.439999 -65.089996 -6.8499999 0 -0.11231916 0.11147633 0.98739934 0.055465914
-34.580002 -65.050003 -6.8499999 0 -0.37468541 0.43140602 0.82067031 0.032709315
-34.330002 -64.839996 -6.8899999 0 -0.086966366 0.13469499 0.98706341 0.025029248
-35.429001 -64.589996 -5.73 0 0.57769543 0.72276407 -0.37931538 0.028587108
-39.039001 -66.589996 -6.2800002 0 0.9922533 -0.020307571 -0.1225601 0.061338257
-35.429001 -64.07 -5.71 0 -0.47513613 0.86626047 0.15439688 0.040733851
-38.049 -65.019997 -5.6799998 0 0.38036898 0.27477542 0.88307297 0.018689718
-35.400002 -63.189999 -6.25 0 0.70759928 0.66565061 -0.23709169 0.11067916
-35.549 -63.209 -6.2600002 0 0.70759928 0.66565061 -0.23709169 0.11067916
-35.41 -62.93 -6.75 0 -0.20615071 0.10795429 0.97254705 0.0028205703
-35.639999 -62.990002 -6.8099999 0 0.22917989 0.034211259 -0.97278273 0.0013511895
-35.789001 -63.02 -6.8499999 0 0.091881655 0.032918867 0.99522561 0.013093181
-35.529999 -62.790001 -6.7800002 0 0.22734544 0.06108382 -0.97189653 0.00036233885
-35.738998 -62.849998 -6.3899999 0 0.25067079 0.35088515 0.90224373 0.0061349571
-35.738998 -62.849998 -6.8200002 0 0.025625536 0.19826849 -0.97981262 0.0065490343
-36.209999 -62.630001 -5.71 0 0.89306462 0.44640967 0.056160826 0.026889244
-38.439999 -63.889999 -6.1999998 0 -0.13139835 0.060664717 0.98947167 0.00031169553
-38.52 -63.860001 -6.21 0 -0.11550125 0.055052768 0.99178052 2.4465968e-05
-38.488998 -63.77 -6.21 0 -0.11601058 0.055248186 0.99171025 0
-36.308998 -62.490002 -6.2800002 0 0.22525376 -0.031042472 -0.97380549 0.028853005
-36.368999 -62.459 -6.2800002 0 0.22525376 -0.031042472 -0.97380549 0.028853005
-36.359001 -62.380001 -6.2800002 0 -0.17735974 0.078775354 0.98098826 0.027245376
-34.289001 -65.809998 -6.6799998 0 0.44491982 0.8907209 0.093073472 0
-34.41 -65.809998 -6.71 0 0.35361597 0.9281832 0.11589448 0.021765219
-34.429001 -65.730003 -6.7399998 0 0.43249094 0.11419088 0.89437801 0.010900349
-34.450001 -65.669998 -6.71 0 0.50851893 0.58163881 -0.6349054 0.049395762
-34.349998 -64.910004 -6.8000002 0 0.046363607 0.25765494 0.96512401 0.05967303
-37.66 -66.669998 -5.6999998 0 0.10407481 0.59119403 -0.79978621 0.047735166
-37.359001 -66.110001 -5.6700001 0 0.56547821 0.18275388 0.80426079 0.020093016
-37.429001 -66.07 -5.6700001 0 0.56660813 0.36176997 0.74032271 0.009629746
