# .PCD v0.7 - Point Cloud Data file format
VERSION 0.7
FIELDS x y z
SIZE 4 4 4
TYPE F F F
COUNT 1 1 1
WIDTH 1606
HEIGHT 1
VIEWPOINT 0 0 0 1 0 0 0
POINTS 1606
DATA ascii
-37.639999 -62.75 -6.8000002
-37.479 -63.380001 -5.9299998
-37.59 -63.09 -5.8499999
-37.609001 -63.040001 -5.8699999
-37.609001 -63.029999 -5.9000001
-37.618999 -63 -5.9299998
-37.630001 -62.990002 -5.96
-37.630001 -62.98 -6.0100002
-37.639999 -62.939999 -6.0300002
-37.639999 -62.950001 -6.0700002
-37.650002 -62.93 -6.0999999
-37.66 -62.900002 -6.1199999
-37.66 -62.889999 -6.1700001
-37.66 -62.900002 -6.21
-37.668999 -62.889999 -6.25
-37.668999 -62.869999 -6.2800002
-37.66 -62.91 -6.3499999
-37.668999 -62.869999 -6.3699999
-37.66 -62.900002 -6.4299998
-37.66 -62.91 -6.48
-37.679001 -62.849998 -6.4899998
-37.668999 -62.860001 -6.5300002
-37.679001 -62.849998 -6.5700002
-37.689999 -62.830002 -6.5999999
-37.709999 -62.779999 -6.5999999
-37.700001 -62.779999 -6.6599998
-37.700001 -62.779999 -6.6999998
-37.709999 -62.759998 -6.73
-37.709999 -62.759998 -6.7800002
-37.580002 -63.34 -5.9000001
-37.599998 -63.279999 -5.9200001
-37.580002 -63.34 -5.98
-37.418999 -63.759998 -6.25
-37.539001 -63.439999 -6.1500001
-37.630001 -63.189999 -6.0900002
-37.668999 -63.080002 -6.0700002
-37.679001 -63.049999 -6.0999999
-37.700001 -63 -6.1199999
-37.709999 -62.970001 -6.1500001
-37.700001 -63 -6.21
-37.689999 -63.02 -6.2600002
-37.700001 -63 -6.2800002
-37.679001 -63.07 -6.3699999
-37.720001 -62.950001 -6.3499999
-37.720001 -62.939999 -6.3800001
-37.700001 -62.990002 -6.46
-37.709999 -62.98 -6.4899998
-37.729 -62.939999 -6.5
-37.738998 -62.889999 -6.5300002
-37.75 -62.860001 -6.5500002
-37.759998 -62.84 -6.5900002
-37.77 -62.82 -6.6199999
-37.759998 -62.84 -6.6799998
-37.759998 -62.849998 -6.71
-37.75 -62.869999 -6.7800002
-37.618999 -63.419998 -5.96
-37.689999 -63.23 -6.3499999
-37.729 -63.130001 -6.3400002
-37.729 -63.119999 -6.3800001
-37.700001 -63.200001 -6.46
-37.77 -63.029999 -6.4200001
-37.738998 -63.110001 -6.5
-37.84 -63.040001 -6.2800002
-37.77 -63.209 -6.4099998
-37.808998 -63.119999 -6.4099998
-37.779999 -63.200001 -6.5
-36.66 -66.599998 -6.04
-36.679001 -66.550003 -6.0900002
-36.668999 -66.580002 -6.1799998
-36.450001 -67.160004 -6.6799998
-36.470001 -67.129997 -6.75
-36.470001 -67.120003 -6.8099999
-36.450001 -67.18 -6.9099998
-36.450001 -67.18 -6.98
-36.738998 -66.589996 -6.04
-36.759998 -66.519997 -6.0900002
-36.709999 -66.650002 -6.1799998
-36.52 -67.160004 -6.3899999
-36.609001 -66.93 -6.3899999
-36.630001 -66.870003 -6.4499998
-36.539001 -67.129997 -6.5999999
-36.549 -67.099998 -6.6599998
-36.558998 -67.080002 -6.71
-36.549 -67.089996 -6.7800002
-36.59 -67 -6.8200002
-36.558998 -67.080002 -6.9299998
-36.799 -66.629997 -6.1700001
-36.709999 -66.860001 -6.3000002
-36.859001 -66.459 -6.25
-36.849998 -66.489998 -6.3200002
-36.849998 -66.489998 -6.3800001
-36.849998 -66.489998 -6.4499998
-36.889999 -66.389999 -6.48
-36.889999 -66.389999 -6.5300002
-36.859001 -66.449997 -6.6300001
-36.84 -66.720001 -6.0999999
-36.849998 -66.690002 -6.1700001
-36.918999 -66.510002 -6.1799998
-36.950001 -66.419998 -6.21
-37.039001 -66.18 -6.21
-37.099998 -66.010002 -6.21
-37.080002 -66.080002 -6.3000002
-37.150002 -65.889999 -6.2800002
-37.150002 -65.889999 -6.3499999
-37.189999 -65.790001 -6.3800001
-37.080002 -66.089996 -6.5300002
-37.109001 -65.989998 -6.5700002
-37.130001 -65.940002 -6.5999999
-37.09 -66.059998 -6.71
-36.959999 -66.580002 -6
-37.02 -66.440002 -6.0300002
-37.009998 -66.449997 -6.0900002
-37.080002 -66.279999 -6.0999999
-37.099998 -66.230003 -6.1500001
-37.259998 -65.790001 -6.1199999
-37.259998 -65.800003 -6.1799998
-37.34 -65.580002 -6.1799998
-37.330002 -65.610001 -6.25
-37.330002 -65.620003 -6.3099999
-37.299 -65.690002 -6.3899999
-37.368999 -65.5 -6.3800001
-37.368999 -65.510002 -6.4299998
-37.32 -65.639999 -6.5500002
-37.330002 -65.629997 -6.5999999
-37.349998 -65.559998 -6.6300001
-37.200001 -65.959 -6.8499999
-37.039001 -66.580002 -5.8699999
-37.130001 -66.349998 -5.8699999
-37.200001 -66.160004 -5.8699999
-37.289001 -65.910004 -5.98
-37.400002 -65.629997 -6.0100002
-37.368999 -65.699997 -6.0900002
-37.389999 -65.650002 -6.1199999
-37.429001 -65.550003 -6.1500001
-37.479 -65.400002 -6.1500001
-37.479 -65.400002 -6.21
-37.529999 -65.290001 -6.23
-37.549 -65.239998 -6.2600002
-37.558998 -65.220001 -6.3099999
-37.558998 -65.199997 -6.3499999
-37.599998 -65.110001 -6.3800001
-37.59 -65.129997 -6.4299998
-37.580002 -65.160004 -6.5
-37.580002 -65.160004 -6.5599999
-37.529999 -65.290001 -6.6700001
-37.16 -66.449997 -5.7600002
-37.308998 -66.059998 -5.7800002
-37.380001 -65.879997 -5.79
-37.368999 -65.919998 -5.8499999
-37.5 -65.559998 -5.8099999
-37.57 -65.379997 -5.96
-37.59 -65.330002 -6.0700002
-37.66 -65.150002 -6.0599999
-37.630001 -65.230003 -6.1399999
-37.679001 -65.089996 -6.1399999
-37.700001 -65.059998 -6.23
-37.75 -64.900002 -6.23
-37.759998 -64.879997 -6.2600002
-37.77 -64.860001 -6.3200002
-37.808998 -64.75 -6.3200002
-37.75 -64.910004 -6.4299998
-37.799 -64.779999 -6.4299998
-37.75 -64.900002 -6.5300002
-37.729 -64.980003 -6.6300001
-37.368999 -66.110001 -5.6700001
-37.429001 -65.949997 -5.6799998
-37.5 -65.769997 -5.6799998
-37.539001 -65.650002 -5.71
-37.539001 -65.669998 -5.7800002
-37.779999 -65.050003 -5.96
-37.849998 -64.860001 -5.9499998
-37.830002 -64.900002 -6.0100002
-37.830002 -64.919998 -6.1199999
-37.880001 -64.769997 -6.0999999
-37.979 -64.5 -6.0599999
-37.970001 -64.550003 -6.1799998
-37.988998 -64.489998 -6.1999998
-38.009998 -64.440002 -6.23
-37.979 -64.510002 -6.3099999
-38.109001 -64.18 -6.21
-37.988998 -64.5 -6.3899999
-38.080002 -64.269997 -6.3499999
-37.859001 -64.82 -6.6399999
-37.868999 -64.790001 -6.6799998
-37.880001 -64.769997 -6.73
-37.970001 -64.529999 -6.6700001
-37.939999 -64.620003 -6.75
-37.939999 -64.629997 -6.8200002
-37.918999 -64.669998 -6.8899999
-37.470001 -66.050003 -5.5700002
-37.529999 -65.889999 -5.5900002
-37.59 -65.730003 -5.6199999
-37.759998 -65.279999 -5.6500001
-37.759998 -65.279999 -5.71
-37.868999 -64.989998 -5.7800002
-38.039001 -64.550003 -6.0599999
-38.118999 -64.349998 -6.1199999
-38.238998 -64.050003 -6.04
-38.25 -64.019997 -6.0700002
-38.200001 -64.139999 -6.1799998
-38.209999 -64.129997 -6.21
-38.25 -64.019997 -6.21
-38.279999 -63.93 -6.21
-38.299 -63.880001 -6.23
-38.299 -63.889999 -6.2800002
-38.289001 -63.919998 -6.3499999
-38.27 -63.970001 -6.4200001
-38.27 -63.959 -6.46
-38.200001 -64.139999 -6.5999999
-38.168999 -64.220001 -6.6999998
-38.200001 -64.129997 -6.6999998
-38.200001 -64.139999 -6.75
-37.539001 -66.059998 -5.5700002
-37.668999 -65.730003 -5.54
-37.868999 -65.190002 -5.5700002
-37.900002 -65.120003 -5.6999998
-38.259998 -64.18 -6
-38.259998 -64.190002 -6.04
-38.308998 -64.050003 -6.04
-38.34 -63.98 -6.04
-38.389999 -63.849998 -6.04
-38.400002 -63.82 -6.0700002
-38.389999 -63.84 -6.1199999
-38.389999 -63.849998 -6.1700001
-38.418999 -63.779999 -6.1799998
-38.418999 -63.790001 -6.21
-38.418999 -63.77 -6.2600002
-38.429001 -63.740002 -6.2800002
-38.429001 -63.75 -6.3400002
-38.418999 -63.77 -6.3899999
-38.429001 -63.75 -6.4299998
-38.429001 -63.740002 -6.46
-38.400002 -63.82 -6.5599999
-38.34 -63.970001 -6.6799998
-38.289001 -64.120003 -6.8200002
-38.27 -64.169998 -6.8899999
-37.668999 -65.93 -5.5300002
-37.77 -65.669998 -5.5300002
-37.849998 -65.459 -5.5300002
-37.900002 -65.330002 -5.54
-38 -65.07 -5.6199999
-38.380001 -64.089996 -5.6799998
-38.389999 -64.050003 -5.71
-38.418999 -63.970001 -5.73
-38.389999 -64.059998 -5.79
-38.41 -64 -5.8200002
-38.439999 -63.919998 -5.8400002
-38.41 -64 -5.9000001
-38.41 -64 -5.96
-38.470001 -63.849998 -5.9299998
-38.429001 -63.939999 -6.0100002
-38.479 -63.810001 -6.0100002
-38.479 -63.82 -6.04
-38.509998 -63.759998 -6.0700002
-38.5 -63.759998 -6.0999999
-38.5 -63.759998 -6.1500001
-38.509998 -63.75 -6.1799998
-38.5 -63.779999 -6.25
-38.488998 -63.790001 -6.3000002
-38.509998 -63.759998 -6.3200002
-38.509998 -63.75 -6.3699999
-38.52 -63.709 -6.3899999
-38.529999 -63.700001 -6.4299998
-38.52 -63.73 -6.4899998
-38.529999 -63.68 -6.5
-38.529999 -63.689999 -6.5500002
-38.529999 -63.689999 -6.5999999
-38.509998 -63.75 -6.6799998
-37.91 -65.510002 -5.48
-37.979 -65.309998 -5.48
-38.029999 -65.199997 -5.5
-38.080002 -65.050003 -5.5100002
-38.279999 -64.540001 -5.5900002
-38.330002 -64.43 -5.5999999
-38.34 -64.389999 -5.6500001
-38.429001 -64.169998 -5.5999999
-38.5 -63.970001 -5.5900002
-38.52 -63.91 -5.5999999
-38.5 -63.970001 -5.6700001
-38.509998 -63.939999 -5.6999998
-38.5 -63.98 -5.7600002
-38.52 -63.919998 -5.7800002
-38.52 -63.93 -5.8200002
-38.509998 -63.959 -5.8699999
-38.529999 -63.889999 -5.9000001
-38.549 -63.860001 -5.9200001
-38.549 -63.860001 -5.96
-38.558998 -63.82 -5.98
-38.558998 -63.810001 -6.0300002
-38.558998 -63.810001 -6.0700002
-38.580002 -63.759998 -6.0900002
-38.59 -63.75 -6.1199999
-38.59 -63.740002 -6.1700001
-38.59 -63.75 -6.21
-38.599998 -63.73 -6.25
-38.59 -63.740002 -6.3000002
-38.59 -63.75 -6.3499999
-38.59 -63.75 -6.3899999
-38.599998 -63.720001 -6.4200001
-38.609001 -63.709 -6.46
-38.609001 -63.700001 -6.5
-38.618999 -63.669998 -6.52
-38.630001 -63.639999 -6.5500002
-38.650002 -63.599998 -6.5700002
-38.630001 -63.650002 -6.6399999
-38.618999 -63.669998 -6.71
-38.59 -63.740002 -6.7800002
-37.738998 -66.129997 -5.5599999
-37.929001 -65.650002 -5.5
-37.970001 -65.540001 -5.5300002
-38.07 -65.290001 -5.5100002
-38.189999 -64.970001 -5.48
-38.27 -64.769997 -5.48
-38.279999 -64.75 -5.5100002
-38.368999 -64.519997 -5.48
-38.479 -64.239998 -5.5700002
-38.529999 -64.099998 -5.6199999
-38.558998 -64.019997 -5.6399999
-38.580002 -63.959 -5.6500001
-38.599998 -63.919998 -5.6799998
-38.59 -63.950001 -5.73
-38.57 -63.990002 -5.79
-38.59 -63.950001 -5.8200002
-38.599998 -63.91 -5.8400002
-38.580002 -63.98 -5.9200001
-38.66 -63.779999 -5.8699999
-38.630001 -63.849998 -5.9299998
-38.609001 -63.889999 -6.0100002
-38.650002 -63.799999 -6.0100002
-38.639999 -63.810001 -6.0599999
-38.650002 -63.810001 -6.0900002
-38.639999 -63.830002 -6.1500001
-38.650002 -63.799999 -6.1799998
-38.650002 -63.810001 -6.21
-38.66 -63.77 -6.25
-38.650002 -63.779999 -6.3000002
-38.66 -63.77 -6.3200002
-38.679001 -63.720001 -6.3499999
-38.668999 -63.740002 -6.4099998
-38.679001 -63.73 -6.4499998
-38.679001 -63.720001 -6.4899998
-38.668999 -63.75 -6.5500002
-38.700001 -63.669998 -6.5500002
-38.689999 -63.689999 -6.5999999
-38.709999 -63.630001 -6.5999999
-38.679001 -63.73 -6.71
-38.709999 -63.650002 -6.71
-38.689999 -63.68 -6.7800002
-37.91 -65.900002 -5.5
-37.970001 -65.739998 -5.5100002
-38.099998 -65.400002 -5.48
-38.308998 -64.870003 -5.4499998
-38.34 -64.779999 -5.5100002
-38.439999 -64.519997 -5.48
-38.479 -64.419998 -5.5
-38.529999 -64.300003 -5.5100002
-38.558998 -64.220001 -5.5100002
-38.539001 -64.279999 -5.5900002
-38.580002 -64.18 -5.5900002
-38.630001 -64.040001 -5.8400002
-38.618999 -64.059998 -5.8899999
-38.668999 -63.939999 -5.8899999
-38.729 -63.799999 -5.8699999
-38.709999 -63.84 -5.9299998
-38.709999 -63.84 -5.96
-38.720001 -63.830002 -6.0100002
-38.720001 -63.82 -6.04
-38.729 -63.790001 -6.0700002
-38.729 -63.810001 -6.1199999
-38.729 -63.799999 -6.1500001
-38.729 -63.810001 -6.21
-38.729 -63.790001 -6.25
-38.738998 -63.759998 -6.2600002
-38.738998 -63.779999 -6.3200002
-38.720001 -63.82 -6.3899999
-38.738998 -63.779999 -6.4099998
-38.738998 -63.779999 -6.46
-38.738998 -63.779999 -6.5
-38.738998 -63.759998 -6.5300002
-38.77 -63.700001 -6.5500002
-38.738998 -63.77 -6.6300001
-38.75 -63.740002 -6.6599998
-38.779999 -63.669998 -6.6599998
-38.759998 -63.720001 -6.7399998
-38.779999 -63.66 -6.75
-38.02 -65.82 -5.48
-38.139999 -65.510002 -5.5100002
-38.400002 -64.849998 -5.4299998
-38.429001 -64.769997 -5.5
-38.439999 -64.730003 -5.54
-38.479 -64.620003 -5.54
-38.609001 -64.309998 -5.54
-38.630001 -64.25 -5.5700002
-38.650002 -64.199997 -5.5900002
-38.599998 -64.339996 -5.71
-38.66 -64.169998 -5.75
-38.75 -63.959 -5.75
-38.689999 -64.099998 -5.8400002
-38.720001 -64.029999 -5.8699999
-38.66 -64.169998 -5.96
-38.738998 -63.98 -5.9299998
-38.700001 -64.080002 -6.0100002
-38.700001 -64.059998 -6.04
-38.77 -63.889999 -6.0100002
-38.808998 -63.799999 -6.0100002
-38.799 -63.810001 -6.0700002
-38.808998 -63.790001 -6.0900002
-38.789001 -63.84 -6.1700001
-38.789001 -63.84 -6.21
-38.789001 -63.849998 -6.2600002
-38.779999 -63.880001 -6.3099999
-38.808998 -63.799999 -6.3200002
-38.82 -63.77 -6.3499999
-38.808998 -63.790001 -6.3899999
-38.808998 -63.799999 -6.4499998
-38.789001 -63.860001 -6.52
-38.808998 -63.779999 -6.5300002
-38.82 -63.77 -6.5599999
-38.82 -63.779999 -6.6199999
-38.799 -63.810001 -6.6799998
-38.849998 -63.700001 -6.6599998
-38.830002 -63.740002 -6.73
-38.868999 -63.650002 -6.71
-38.130001 -65.739998 -5.4499998
-38.200001 -65.559998 -5.5100002
-38.308998 -65.260002 -5.48
-38.450001 -64.910004 -5.4299998
-38.488998 -64.82 -5.46
-38.668999 -64.339996 -5.5
-38.709999 -64.25 -5.54
-38.720001 -64.220001 -5.5900002
-38.668999 -64.349998 -5.71
-38.729 -64.190002 -5.6999998
-38.259998 -65.410004 -6.1799998
-38.709999 -64.260002 -5.8099999
-38.689999 -64.300003 -5.8699999
-38.679001 -64.32 -5.9200001
-38.75 -64.160004 -5.9000001
-38.729 -64.190002 -5.96
-38.77 -64.099998 -5.96
-38.779999 -64.07 -6
-38.799 -64.029999 -6.0100002
-38.84 -63.91 -6.0100002
-38.859001 -63.880001 -6.04
-38.868999 -63.84 -6.0599999
-38.868999 -63.830002 -6.0900002
-38.880001 -63.810001 -6.1199999
-38.859001 -63.860001 -6.1999998
-38.868999 -63.84 -6.23
-38.859001 -63.880001 -6.3000002
-38.889999 -63.790001 -6.2800002
-38.880001 -63.830002 -6.3499999
-38.880001 -63.82 -6.3899999
-38.868999 -63.830002 -6.4499998
-38.859001 -63.869999 -6.5
-38.880001 -63.82 -6.5300002
-38.880001 -63.810001 -6.5700002
-38.868999 -63.84 -6.6300001
-38.900002 -63.779999 -6.6399999
-38.900002 -63.77 -6.6799998
-38.918999 -63.709 -6.6799998
-38.889999 -63.810001 -6.7800002
-38.189999 -65.760002 -5.4499998
-38.289001 -65.529999 -5.5
-38.380001 -65.300003 -5.48
-38.529999 -64.919998 -5.4299998
-38.529999 -64.910004 -5.48
-38.618999 -64.68 -5.5
-38.679001 -64.519997 -5.5
-38.759998 -64.32 -5.48
-38.789001 -64.239998 -5.54
-38.779999 -64.269997 -5.5900002
-38.799 -64.230003 -5.6199999
-38.84 -64.120003 -5.6199999
-38.308998 -65.470001 -6.1999998
-38.799 -64.220001 -5.79
-38.779999 -64.269997 -5.8400002
-38.779999 -64.260002 -5.8899999
-38.779999 -64.269997 -5.9299998
-38.799 -64.209 -5.96
-38.859001 -64.07 -5.9299998
-38.868999 -64.050003 -5.98
-38.849998 -64.080002 -6.0300002
-38.880001 -64.010002 -6.04
-38.939999 -63.849998 -6.0100002
-38.939999 -63.869999 -6.0599999
-38.939999 -63.860001 -6.0900002
-38.950001 -63.830002 -6.1199999
-38.939999 -63.849998 -6.1799998
-38.929001 -63.889999 -6.23
-38.950001 -63.830002 -6.2600002
-38.950001 -63.849998 -6.3099999
-38.950001 -63.84 -6.3499999
-38.918999 -63.900002 -6.4299998
-38.929001 -63.889999 -6.46
-38.950001 -63.849998 -6.4899998
-38.950001 -63.849998 -6.5300002
-38.979 -63.77 -6.5300002
-38.939999 -63.880001 -6.6300001
-38.959999 -63.810001 -6.6399999
-38.979 -63.759998 -6.6599998
-38.988998 -63.740002 -6.6799998
-38.979 -63.759998 -6.75
-38.959999 -63.810001 -6.8200002
-38.25 -65.82 -5.46
-38.32 -65.629997 -5.5100002
-38.450001 -65.309998 -5.48
-38.558998 -65.029999 -5.46
-38.558998 -65.019997 -5.5
-38.59 -64.949997 -5.5300002
-38.679001 -64.720001 -5.5100002
-38.720001 -64.620003 -5.5100002
-38.799 -64.410004 -5.5
-38.868999 -64.25 -5.5
-38.849998 -64.290001 -5.54
-38.859001 -64.279999 -5.5900002
-38.868999 -64.25 -5.6199999
-38.918999 -64.120003 -5.6500001
-38.830002 -64.339996 -5.7800002
-38.84 -64.32 -5.8099999
-38.859001 -64.279999 -5.8400002
-38.859001 -64.260002 -5.8699999
-38.84 -64.309998 -5.9299998
-38.868999 -64.230003 -5.9499998
-38.859001 -64.269997 -6.0100002
-38.91 -64.139999 -6
-38.929001 -64.089996 -6.0100002
-38.970001 -63.98 -6.0100002
-39.009998 -63.900002 -6.0100002
-39 -63.91 -6.0700002
-39.009998 -63.900002 -6.0900002
-39.02 -63.869999 -6.1399999
-39.009998 -63.880001 -6.1799998
-39.02 -63.869999 -6.21
-39 -63.91 -6.2800002
-39.009998 -63.900002 -6.3200002
-39.009998 -63.900002 -6.3499999
-39.02 -63.869999 -6.3899999
-38.988998 -63.950001 -6.48
-39 -63.91 -6.5
-39.02 -63.880001 -6.5300002
-39.029999 -63.849998 -6.5599999
-39.02 -63.869999 -6.5999999
-39.009998 -63.889999 -6.6700001
-39.049 -63.799999 -6.6599998
-39.07 -63.73 -6.6700001
-39.029999 -63.849998 -6.7800002
-38.959999 -64.019997 -6.9299998
-38.308998 -65.879997 -5.46
-38.639999 -65.019997 -5.4499998
-38.618999 -65.07 -5.5100002
-38.720001 -64.82 -5.48
-38.789001 -64.639999 -5.48
-38.880001 -64.43 -5.5
-38.91 -64.339996 -5.5100002
-38.91 -64.349998 -5.5599999
-38.929001 -64.290001 -5.5700002
-38.959999 -64.209 -5.5900002
-38.889999 -64.379997 -5.6999998
-38.959999 -64.220001 -5.71
-38.959999 -64.220001 -5.7600002
-39.02 -64.07 -5.75
-38.41 -65.610001 -6.3899999
-38.880001 -64.43 -5.96
-38.970001 -64.18 -5.9200001
-38.950001 -64.25 -6.0300002
-39.02 -64.059998 -6
-39.07 -63.93 -5.98
-39.07 -63.950001 -6.0300002
-39.07 -63.939999 -6.0700002
-39.058998 -63.959 -6.1199999
-39.058998 -63.959 -6.1500001
-39.07 -63.939999 -6.1799998
-39.07 -63.939999 -6.23
-39.058998 -63.959 -6.2800002
-39.058998 -63.970001 -6.3400002
-39.07 -63.93 -6.3499999
-39.080002 -63.919998 -6.3899999
-39.058998 -63.959 -6.46
-39.080002 -63.91 -6.48
-39.080002 -63.93 -6.5300002
-39.058998 -63.98 -6.5999999
-39.07 -63.950001 -6.6399999
-39.09 -63.889999 -6.6399999
-39.118999 -63.82 -6.6399999
-39.130001 -63.799999 -6.6799998
-39.130001 -63.790001 -6.71
-39.07 -63.939999 -6.8499999
-38.368999 -65.919998 -5.46
-38.380001 -65.889999 -5.5100002
-38.479 -65.629997 -5.5
-38.808998 -64.790001 -5.46
-38.979 -64.370003 -5.46
-38.988998 -64.349998 -5.5100002
-39 -64.32 -5.54
-38.988998 -64.339996 -5.5900002
-39.02 -64.260002 -5.5900002
-38.970001 -64.389999 -5.6799998
-39.009998 -64.290001 -5.6999998
-39 -64.32 -5.75
-39.02 -64.269997 -5.7600002
-38.979 -64.360001 -5.8400002
-38.470001 -65.660004 -6.3899999
-38.950001 -64.449997 -5.96
-39.02 -64.269997 -5.9299998
-39.009998 -64.290001 -5.98
-39.029999 -64.239998 -6.0100002
-39.049 -64.190002 -6.04
-39.118999 -64.010002 -6
-39.130001 -63.990002 -6.0300002
-39.130001 -63.990002 -6.0700002
-39.139999 -63.959 -6.0900002
-39.150002 -63.939999 -6.1399999
-39.16 -63.919998 -6.1700001
-39.130001 -63.990002 -6.23
-39.130001 -63.98 -6.2800002
-39.130001 -63.990002 -6.3200002
-39.150002 -63.950001 -6.3499999
-39.150002 -63.950001 -6.3899999
-39.150002 -63.950001 -6.4299998
-39.16 -63.91 -6.46
-39.150002 -63.939999 -6.5300002
-39.150002 -63.939999 -6.5700002
-39.150002 -63.939999 -6.5999999
-39.150002 -63.93 -6.6399999
-39.168999 -63.889999 -6.6700001
-39.179001 -63.869999 -6.71
-39.189999 -63.849998 -6.7399998
-39.179001 -63.860001 -6.7800002
-38.429001 -65.959 -5.46
-38.689999 -65.309998 -5.46
-38.880001 -64.830002 -5.46
-39.009998 -64.489998 -5.5
-39.109001 -64.25 -5.46
-39.049 -64.379997 -5.54
-39.058998 -64.360001 -5.5700002
-39.049 -64.400002 -5.6399999
-39.109001 -64.239998 -5.6199999
-39.09 -64.290001 -5.6799998
-39.09 -64.300003 -5.73
-39.058998 -64.360001 -5.79
-39.058998 -64.360001 -5.8400002
-39.099998 -64.260002 -5.8400002
-39.049 -64.389999 -5.9299998
-39.099998 -64.269997 -5.9299998
-39.109001 -64.239998 -5.96
-39.130001 -64.199997 -5.98
-39.058998 -64.360001 -6.0900002
-39.16 -64.110001 -6.0300002
-39.200001 -64.010002 -6.0100002
-39.209999 -63.98 -6.04
-39.200001 -64.010002 -6.0999999
-39.200001 -64.019997 -6.1500001
-39.209999 -63.990002 -6.1799998
-39.200001 -64.019997 -6.23
-39.200001 -64.010002 -6.2800002
-39.200001 -64.010002 -6.3200002
-39.209999 -63.990002 -6.3499999
-39.209999 -63.98 -6.3899999
-39.220001 -63.959 -6.4299998
-39.220001 -63.959 -6.46
-39.229 -63.950001 -6.5
-39.220001 -63.970001 -6.5700002
-39.200001 -64.010002 -6.6300001
-39.209999 -63.98 -6.6599998
-39.238998 -63.919998 -6.6700001
-39.259998 -63.860001 -6.6799998
-39.259998 -63.860001 -6.73
-39.200001 -64.029999 -6.8800001
-38.5 -65.980003 -5.46
-38.599998 -65.730003 -5.5100002
-38.779999 -65.260002 -5.4299998
-38.799 -65.230003 -5.48
-38.859001 -65.080002 -5.48
-38.889999 -65 -5.5100002
-39.049 -64.589996 -5.5100002
-39.09 -64.480003 -5.5300002
-39.099998 -64.449997 -5.5599999
-39.118999 -64.400002 -5.5700002
-39.130001 -64.379997 -5.6199999
-39.139999 -64.360001 -5.6500001
-39.168999 -64.279999 -5.6700001
-39.130001 -64.389999 -5.75
-39.139999 -64.360001 -5.7800002
-39.118999 -64.410004 -5.8400002
-39.150002 -64.330002 -5.8400002
-39.099998 -64.459 -5.9499998
-39.168999 -64.290001 -5.9200001
-39.168999 -64.279999 -5.96
-39.16 -64.309998 -6.0100002
-39.200001 -64.209 -6.0100002
-39.25 -64.099998 -6.0100002
-39.259998 -64.07 -6.04
-39.279999 -64.019997 -6.0599999
-39.279999 -64.010002 -6.0900002
-39.259998 -64.07 -6.1500001
-39.259998 -64.07 -6.1999998
-39.27 -64.050003 -6.23
-39.27 -64.050003 -6.2800002
-39.27 -64.050003 -6.3200002
-39.27 -64.029999 -6.3499999
-39.279999 -64.019997 -6.3899999
-39.289001 -63.990002 -6.4200001
-39.279999 -64.010002 -6.48
-39.279999 -64.010002 -6.52
-39.289001 -63.990002 -6.5599999
-39.259998 -64.07 -6.6399999
-39.27 -64.040001 -6.6700001
-39.299 -63.970001 -6.6799998
-39.330002 -63.889999 -6.6799998
-39.32 -63.919998 -6.7399998
-39.279999 -64.019997 -6.8499999
-38.529999 -66.089996 -5.48
-38.650002 -65.790001 -5.5100002
-38.91 -65.150002 -5.5
-38.979 -64.970001 -5.48
-39.049 -64.809998 -5.48
-39.109001 -64.650002 -5.5300002
-39.189999 -64.449997 -5.5100002
-39.189999 -64.440002 -5.54
-39.189999 -64.449997 -5.5900002
-39.168999 -64.489998 -5.6399999
-39.229 -64.339996 -5.6199999
-39.229 -64.339996 -5.6799998
-39.25 -64.290001 -5.6999998
-39.209999 -64.389999 -5.7800002
-39.200001 -64.419998 -5.8200002
-39.179001 -64.470001 -5.8899999
-39.179001 -64.470001 -5.9299998
-39.220001 -64.379997 -5.9299998
-39.27 -64.25 -5.9299998
-39.25 -64.279999 -5.98
-39.299 -64.169998 -5.98
-39.308998 -64.139999 -6.0100002
-39.330002 -64.089996 -6.0300002
-39.330002 -64.099998 -6.0700002
-39.330002 -64.089996 -6.0999999
-39.330002 -64.099998 -6.1500001
-39.330002 -64.089996 -6.1999998
-39.330002 -64.089996 -6.23
-39.330002 -64.089996 -6.2800002
-39.34 -64.07 -6.3200002
-39.34 -64.07 -6.3499999
-39.349998 -64.040001 -6.3899999
-39.34 -64.059998 -6.4299998
-39.349998 -64.050003 -6.48
-39.349998 -64.059998 -6.5300002
-39.359001 -64.029999 -6.5599999
-39.359001 -64.029999 -6.5999999
-39.349998 -64.059998 -6.6700001
-39.368999 -64.010002 -6.6799998
-39.380001 -63.959 -6.6999998
-39.368999 -63.990002 -6.75
-39.368999 -64 -6.8099999
-38.558998 -66.220001 -5.5100002
-38.75 -65.75 -5.5
-38.849998 -65.5 -5.48
-38.950001 -65.25 -5.46
-38.959999 -65.209 -5.5
-39.058998 -64.959 -5.48
-39.109001 -64.839996 -5.48
-39.200001 -64.620003 -5.46
-39.189999 -64.629997 -5.5100002
-39.299 -64.370003 -5.46
-39.259998 -64.459 -5.54
-39.259998 -64.470001 -5.5900002
-39.289001 -64.400002 -5.5900002
-39.229 -64.540001 -5.6799998
-39.289001 -64.400002 -5.6799998
-39.308998 -64.339996 -5.6999998
-39.299 -64.370003 -5.7600002
-39.32 -64.32 -5.7800002
-39.209999 -64.589996 -5.9299998
-39.220001 -64.57 -5.96
-39.289001 -64.400002 -5.9299998
-39.27 -64.440002 -6
-39.289001 -64.410004 -6.0300002
-39.380001 -64.18 -5.96
-39.400002 -64.120003 -5.98
-39.41 -64.099998 -6.0100002
-39.389999 -64.139999 -6.0700002
-39.418999 -64.080002 -6.0900002
-39.41 -64.110001 -6.1500001
-39.41 -64.099998 -6.1799998
-39.400002 -64.120003 -6.23
-39.400002 -64.120003 -6.2800002
-39.41 -64.110001 -6.3200002
-39.41 -64.110001 -6.3499999
-39.41 -64.089996 -6.3899999
-39.429001 -64.059998 -6.4200001
-39.41 -64.110001 -6.4899998
-39.418999 -64.07 -6.52
-39.439999 -64.019997 -6.5300002
-39.418999 -64.07 -6.5999999
-39.41 -64.110001 -6.6700001
-39.439999 -64.029999 -6.6700001
-39.450001 -64.010002 -6.6999998
-39.450001 -63.990002 -6.7399998
-39.41 -64.110001 -6.8499999
-38.66 -66.18 -5.48
-38.66 -66.160004 -5.54
-38.759998 -65.919998 -5.5300002
-38.900002 -65.580002 -5.5
-39.049 -65.190002 -5.4299998
-39.099998 -65.080002 -5.5
-39.238998 -64.709 -5.48
-39.229 -64.739998 -5.5300002
-39.330002 -64.5 -5.54
-39.330002 -64.489998 -5.5700002
-39.279999 -64.610001 -5.6500001
-39.308998 -64.559998 -5.6799998
-39.368999 -64.400002 -5.6700001
-39.34 -64.459 -5.73
-39.32 -64.529999 -5.79
-39.299 -64.57 -5.8499999
-39.289001 -64.610001 -5.9200001
-39.299 -64.57 -5.9499998
-39.34 -64.489998 -5.96
-39.32 -64.529999 -6.0100002
-39.368999 -64.410004 -6.0100002
-39.459999 -64.18 -5.9499998
-39.450001 -64.199997 -6
-39.459999 -64.169998 -6.0300002
-39.459999 -64.190002 -6.0700002
-39.450001 -64.199997 -6.1199999
-39.450001 -64.190002 -6.1700001
-39.479 -64.129997 -6.1799998
-39.459999 -64.190002 -6.25
-39.459999 -64.169998 -6.2800002
-39.459999 -64.169998 -6.3200002
-39.479 -64.139999 -6.3499999
-39.459999 -64.169998 -6.4200001
-39.479 -64.129997 -6.4299998
-39.459999 -64.169998 -6.5
-39.488998 -64.120003 -6.52
-39.488998 -64.099998 -6.5599999
-39.479 -64.120003 -6.5999999
-39.470001 -64.150002 -6.6700001
-39.488998 -64.099998 -6.6799998
-39.52 -64.019997 -6.6799998
-39.52 -64.029999 -6.7399998
-39.470001 -64.160004 -6.8699999
-38.789001 -66.050003 -5.5
-38.84 -65.919998 -5.5100002
-38.950001 -65.650002 -5.5
-39.109001 -65.25 -5.4499998
-39.209999 -65.010002 -5.46
-39.220001 -64.959 -5.54
-39.330002 -64.709 -5.5100002
-39.429001 -64.449997 -5.46
-39.368999 -64.610001 -5.5599999
-39.380001 -64.57 -5.5900002
-39.380001 -64.57 -5.6199999
-39.368999 -64.599998 -5.6799998
-39.41 -64.510002 -5.6999998
-39.418999 -64.480003 -5.73
-39.380001 -64.580002 -5.8099999
-39.359001 -64.639999 -5.8699999
-39.330002 -64.709 -5.9299998
-39.330002 -64.699997 -5.98
-39.368999 -64.610001 -5.98
-39.418999 -64.480003 -5.98
-39.5 -64.290001 -5.98
-39.5 -64.269997 -6.0100002
-39.529999 -64.199997 -6.0300002
-39.52 -64.220001 -6.0700002
-39.539001 -64.190002 -6.0999999
-39.529999 -64.209 -6.1500001
-39.549 -64.150002 -6.1700001
-39.539001 -64.190002 -6.23
-39.529999 -64.209 -6.2800002
-39.539001 -64.18 -6.3099999
-39.529999 -64.199997 -6.3699999
-39.539001 -64.169998 -6.3899999
-39.549 -64.169998 -6.4299998
-39.539001 -64.190002 -6.4899998
-39.549 -64.160004 -6.52
-39.549 -64.150002 -6.5599999
-39.549 -64.160004 -6.5999999
-39.539001 -64.190002 -6.6799998
-39.580002 -64.080002 -6.6399999
-39.580002 -64.080002 -6.6999998
-39.599998 -64.019997 -6.71
-39.5 -64.290001 -6.9299998
-38.880001 -66.029999 -5.54
-39.02 -65.669998 -5.5
-39.189999 -65.260002 -5.4299998
-39.150002 -65.339996 -5.5
-39.220001 -65.18 -5.5100002
-39.380001 -64.779999 -5.5100002
-39.439999 -64.629997 -5.5599999
-39.429001 -64.650002 -5.5999999
-39.400002 -64.720001 -5.71
-39.439999 -64.629997 -5.8099999
-39.389999 -64.760002 -5.9000001
-39.400002 -64.720001 -5.9299998
-39.400002 -64.720001 -5.98
-39.470001 -64.550003 -5.9499998
-39.439999 -64.639999 -6.0300002
-39.459999 -64.580002 -6.04
-39.580002 -64.290001 -5.96
-39.580002 -64.279999 -6.0100002
-39.59 -64.25 -6.0300002
-39.599998 -64.239998 -6.0700002
-39.580002 -64.279999 -6.1199999
-39.618999 -64.18 -6.1199999
-39.618999 -64.199997 -6.1799998
-39.609001 -64.199997 -6.21
-39.580002 -64.269997 -6.3000002
-39.599998 -64.230003 -6.3200002
-39.580002 -64.279999 -6.3899999
-39.580002 -64.290001 -6.4299998
-39.66 -64.099998 -6.3800001
-39.618999 -64.199997 -6.48
-39.59 -64.25 -6.5500002
-39.599998 -64.230003 -6.5700002
-39.599998 -64.239998 -6.6300001
-39.618999 -64.18 -6.6399999
-39.639999 -64.129997 -6.6599998
-39.650002 -64.120003 -6.6999998
-39.59 -64.269997 -6.8400002
-39.150002 -65.550003 -5.5
-39.220001 -65.370003 -5.5
-39.34 -65.07 -5.46
-39.349998 -65.059998 -5.5
-39.429001 -64.870003 -5.48
-39.5 -64.690002 -5.5100002
-39.5 -64.68 -5.5599999
-39.5 -64.669998 -5.5900002
-39.5 -64.699997 -5.6500001
-39.539001 -64.589996 -5.6799998
-39.439999 -64.830002 -5.8200002
-39.549 -64.559998 -5.7600002
-39.389999 -64.949997 -5.96
-39.52 -64.629997 -5.8699999
-39.479 -64.739998 -5.96
-39.539001 -64.599998 -5.9499998
-39.57 -64.510002 -5.96
-39.549 -64.559998 -6.0100002
-39.639999 -64.349998 -5.96
-39.59 -64.459 -6.0599999
-39.66 -64.279999 -6.0300002
-39.668999 -64.260002 -6.0599999
-39.679001 -64.25 -6.0900002
-39.66 -64.290001 -6.1500001
-39.668999 -64.269997 -6.1799998
-39.668999 -64.269997 -6.23
-39.668999 -64.260002 -6.2600002
-39.668999 -64.269997 -6.3200002
-39.679001 -64.25 -6.3499999
-39.689999 -64.220001 -6.3800001
-39.668999 -64.279999 -6.4499998
-39.668999 -64.269997 -6.4899998
-39.650002 -64.309998 -6.5599999
-39.689999 -64.220001 -6.5599999
-39.709999 -64.18 -6.5700002
-39.679001 -64.239998 -6.6599998
-39.679001 -64.239998 -6.6999998
-39.75 -64.07 -6.6399999
-39.668999 -64.269997 -6.8099999
-39.168999 -65.699997 -5.5700002
-39.32 -65.32 -5.5100002
-39.368999 -65.209 -5.54
-39.459999 -64.980003 -5.5100002
-39.470001 -64.949997 -5.54
-39.529999 -64.82 -5.54
-39.558998 -64.730003 -5.5599999
-39.57 -64.709 -5.5900002
-39.639999 -64.550003 -5.6199999
-39.609001 -64.610001 -5.73
-39.599998 -64.629997 -5.7800002
-39.609001 -64.620003 -5.8200002
-39.66 -64.5 -5.8099999
-39.529999 -64.82 -6.0300002
-39.650002 -64.519997 -5.9499998
-39.700001 -64.400002 -5.9299998
-39.700001 -64.400002 -5.98
-39.729 -64.309998 -5.98
-39.700001 -64.389999 -6.0599999
-39.709999 -64.360001 -6.0900002
-39.720001 -64.349998 -6.1199999
-39.75 -64.279999 -6.1199999
-39.738998 -64.300003 -6.1799998
-39.720001 -64.339996 -6.25
-39.700001 -64.400002 -6.3200002
-39.709999 -64.360001 -6.3499999
-39.75 -64.269997 -6.3400002
-39.738998 -64.290001 -6.3899999
-39.709999 -64.370003 -6.48
-39.720001 -64.349998 -6.52
-39.729 -64.330002 -6.5500002
-39.720001 -64.349998 -6.5999999
-39.738998 -64.300003 -6.6199999
-39.75 -64.269997 -6.6599998
-39.759998 -64.25 -6.6799998
-39.779999 -64.190002 -6.6999998
-39.77 -64.220001 -6.75
-38.509998 -67.559998 -6.0700002
-38.52 -67.519997 -6.1199999
-39.52 -65.050003 -5.5599999
-39.630001 -64.769997 -5.5900002
-39.689999 -64.620003 -5.7600002
-39.808998 -64.32 -5.73
-39.689999 -64.620003 -5.8899999
-39.75 -64.470001 -5.8699999
-39.720001 -64.540001 -5.98
-39.77 -64.43 -5.96
-39.77 -64.419998 -6.0100002
-39.779999 -64.400002 -6.04
-39.779999 -64.400002 -6.0900002
-39.789001 -64.379997 -6.1199999
-39.789001 -64.370003 -6.1500001
-39.779999 -64.410004 -6.21
-39.759998 -64.449997 -6.2800002
-39.799 -64.349998 -6.2600002
-39.789001 -64.379997 -6.3200002
-39.77 -64.43 -6.3899999
-39.759998 -64.459 -6.46
-39.77 -64.43 -6.4899998
-39.82 -64.300003 -6.46
-39.789001 -64.379997 -6.5599999
-39.799 -64.360001 -6.5900002
-39.759998 -64.440002 -6.6799998
-39.830002 -64.279999 -6.6399999
-39.84 -64.260002 -6.6700001
-39.830002 -64.290001 -6.73
-39.82 -64.309998 -6.7800002
-38.580002 -67.57 -6.1199999
-39.639999 -64.959 -5.6500001
-39.700001 -64.800003 -5.6399999
-39.779999 -64.589996 -5.5999999
-39.799 -64.559998 -5.6399999
-39.759998 -64.639999 -5.71
-39.82 -64.5 -5.7800002
-39.729 -64.720001 -5.9000001
-39.82 -64.5 -5.8499999
-39.849998 -64.43 -5.8699999
-39.830002 -64.480003 -5.9299998
-39.84 -64.459 -5.96
-39.808998 -64.529999 -6.04
-39.830002 -64.480003 -6.0599999
-39.830002 -64.489998 -6.0999999
-39.82 -64.5 -6.1500001
-39.82 -64.5 -6.1999998
-39.84 -64.449997 -6.21
-39.859001 -64.419998 -6.23
-39.849998 -64.440002 -6.3000002
-39.849998 -64.440002 -6.3400002
-39.84 -64.449997 -6.3899999
-39.849998 -64.43 -6.4299998
-39.849998 -64.43 -6.46
-39.849998 -64.440002 -6.52
-39.849998 -64.43 -6.5599999
-39.84 -64.459 -6.6199999
-39.849998 -64.419998 -6.6399999
-39.889999 -64.330002 -6.6399999
-39.900002 -64.32 -6.6700001
-39.859001 -64.419998 -6.7800002
-39.859001 -64.400002 -6.8200002
-39.779999 -64.809998 -5.79
-39.84 -64.650002 -5.7800002
-39.808998 -64.720001 -5.8400002
-39.849998 -64.629997 -5.8499999
-39.889999 -64.529999 -5.8499999
-39.868999 -64.589996 -5.9200001
-39.868999 -64.580002 -5.96
-39.918999 -64.459 -5.9499998
-39.84 -64.660004 -6.0700002
-39.868999 -64.589996 -6.0900002
-39.889999 -64.540001 -6.0999999
-39.900002 -64.510002 -6.1399999
-39.918999 -64.470001 -6.1700001
-39.918999 -64.459 -6.1999998
-39.918999 -64.459 -6.25
-39.91 -64.5 -6.3099999
-39.91 -64.489998 -6.3499999
-39.91 -64.489998 -6.3899999
-39.929001 -64.43 -6.4099998
-39.889999 -64.540001 -6.5
-39.918999 -64.449997 -6.5
-39.918999 -64.459 -6.5599999
-39.918999 -64.449997 -6.5999999
-39.939999 -64.410004 -6.6199999
-39.979 -64.32 -6.5999999
-39.970001 -64.339996 -6.6700001
-39.950001 -64.379997 -6.7399998
-39.929001 -64.43 -6.8099999
-39.77 -65.019997 -6
-39.799 -64.949997 -6.0100002
-39.950001 -64.580002 -5.9000001
-39.939999 -64.620003 -6.04
-39.939999 -64.610001 -6.0900002
-39.959999 -64.559998 -6.0999999
-39.970001 -64.529999 -6.1199999
-39.970001 -64.540001 -6.1799998
-39.959999 -64.559998 -6.23
-39.929001 -64.639999 -6.3200002
-39.929001 -64.629997 -6.3499999
-39.970001 -64.550003 -6.3499999
-39.970001 -64.550003 -6.4099998
-39.979 -64.519997 -6.4299998
-39.988998 -64.489998 -6.46
-39.988998 -64.480003 -6.5500002
-40 -64.459 -6.5700002
-40.080002 -64.279999 -6.52
-40.049 -64.349998 -6.5999999
-40.049 -64.330002 -6.6399999
-39.918999 -64.860001 -5.9200001
-39.988998 -64.690002 -6.0900002
-39.939999 -64.809998 -6.1999998
-39.970001 -64.75 -6.21
-39.988998 -64.699997 -6.23
-40 -64.68 -6.2600002
-40 -64.660004 -6.3000002
-39.979 -64.720001 -6.3800001
-39.988998 -64.690002 -6.4099998
-40.009998 -64.639999 -6.4299998
-40.049 -64.550003 -6.4299998
-40.07 -64.699997 -6.3099999
-40.07 -64.709 -6.3499999
-40.058998 -64.720001 -6.3899999
-40.09 -64.650002 -6.4200001
-39.808998 -64.959 -6.1399999
-39.729 -65.18 -6.23
-39.720001 -65.190002 -6.3400002
-39.729 -65.190002 -6.46
-39.789001 -65.010002 -6.5999999
-39.789001 -65.029999 -6.73
-39.779999 -65.050003 -6.8499999
-39.729 -65.169998 -6.9299998
-39.77 -64.889999 -5.9000001
-39.720001 -65.019997 -6.0100002
-39.459999 -65.690002 -6.2600002
-39.459999 -65.699997 -6.3699999
-39.529999 -65.510002 -6.52
-39.558998 -65.43 -6.6399999
-39.59 -65.370003 -6.7800002
-39.599998 -65.339996 -6.9099998
-39.709999 -64.870003 -5.79
-39.27 -66.010002 -6.21
-39.27 -66.010002 -6.3200002
-39.238998 -66.110001 -6.4200001
-39.259998 -66.029999 -6.5300002
-39.349998 -65.800003 -6.6999998
-39.429001 -65.580002 -6.8499999
-39.57 -65.029999 -5.6700001
-39.470001 -65.290001 -5.75
-39.368999 -65.57 -5.8200002
-39.308998 -65.720001 -5.9200001
-39.099998 -66.269997 -6.1700001
-39.029999 -66.449997 -6.25
-39.039001 -66.43 -6.3499999
-39 -66.529999 -6.4499998
-39.009998 -66.5 -6.5700002
-39.359001 -65.400002 -5.6399999
-39.25 -65.690002 -5.71
-39.179001 -65.870003 -5.79
-39.049 -66.230003 -5.96
-38.988998 -66.389999 -6.04
-38.959999 -66.449997 -6.1500001
-38.549 -67.550003 -6.0700002
-38.799 -66.889999 -6.2800002
-38.82 -66.839996 -6.5
-38.859001 -66.720001 -6.6399999
-39.34 -65.290001 -5.54
-39.229 -65.580002 -5.6199999
-38.979 -66.239998 -5.7600002
-38.900002 -66.449997 -5.8400002
-38.91 -66.43 -5.9499998
-38.849998 -66.589996 -6.0300002
-38.799 -66.699997 -6.1199999
-38.470001 -67.580002 -6.0700002
-38.488998 -67.519997 -6.1799998
-38.66 -67.080002 -6.3699999
-38.650002 -67.110001 -6.46
-38.639999 -67.129997 -6.5599999
-38.639999 -67.139999 -6.6599998
-39.189999 -65.489998 -5.5300002
-39.049 -65.879997 -5.5900002
-38.929001 -66.190002 -5.6500001
-38.889999 -66.279999 -5.7600002
-38.789001 -66.559998 -5.8200002
-38.75 -66.660004 -5.9200001
-38.720001 -66.730003 -6.0100002
-38.700001 -66.779999 -6.0999999
-38.418999 -67.540001 -6.0700002
-38.400002 -67.589996 -6.1700001
-38.5 -67.309998 -6.3200002
-38.470001 -67.400002 -6.4099998
-38.488998 -67.339996 -6.52
-38.479 -67.389999 -6.5999999
-38.5 -67.330002 -6.73
-39.080002 -65.580002 -5.5100002
-38.889999 -66.099998 -5.5599999
-38.789001 -66.360001 -5.6399999
-38.720001 -66.529999 -5.71
-38.630001 -66.779999 -5.79
-38.599998 -66.870003 -5.8699999
-38.549 -66.980003 -5.96
-38.630001 -66.779999 -6.0900002
-38.459999 -67.230003 -6.1199999
-38.330002 -67.580002 -6.1700001
-38.34 -67.550003 -6.2600002
-38.308998 -67.629997 -6.3499999
-38.32 -67.589996 -6.46
-38.279999 -67.699997 -6.5300002
-38.289001 -67.669998 -6.6399999
-38.308998 -67.639999 -6.75
-38.229 -67.830002 -6.8000002
-38.238998 -67.82 -6.9099998
-38.979 -65.669998 -5.5100002
-38.789001 -66.18 -5.5599999
-38.650002 -66.550003 -5.6199999
-38.580002 -66.739998 -5.6999998
-38.580002 -66.720001 -5.8099999
-38.459999 -67.059998 -5.8499999
-38.5 -66.949997 -5.98
-38.549 -66.82 -6.0999999
-38.32 -67.43 -6.0900002
-38.289001 -67.510002 -6.1799998
-38.238998 -67.629997 -6.2600002
-38.168999 -67.82 -6.3200002
-38.099998 -68.010002 -6.48
-38.25 -67.599998 -6.6700001
-38.139999 -67.900002 -6.6999998
-38.150002 -67.879997 -6.8000002
-38.168999 -67.809998 -6.9099998
-38.82 -65.93 -5.48
-38.679001 -66.32 -5.54
-38.580002 -66.580002 -5.6199999
-38.459999 -66.900002 -5.6799998
-38.389999 -67.059998 -5.7600002
-38.34 -67.209 -5.8400002
-38.259998 -67.43 -5.9000001
-38.209999 -67.559998 -5.98
-38.220001 -67.540001 -6.0900002
-38.200001 -67.580002 -6.1799998
-38.139999 -67.739998 -6.25
-38.118999 -67.800003 -6.3200002
-38.058998 -67.949997 -6.3899999
-37.970001 -68.199997 -6.5300002
-38.02 -68.059998 -6.6700001
-38.07 -67.919998 -6.7800002
-38.07 -67.940002 -6.8899999
-38.058998 -67.959 -6.98
-39.139999 -64.949997 -5.48
-38.77 -65.910004 -5.48
-38.57 -66.449997 -5.5300002
-38.470001 -66.709 -5.5900002
-38.349998 -67.019997 -5.6500001
-38.308998 -67.120003 -5.75
-38.259998 -67.25 -5.8200002
-38.220001 -67.360001 -5.9000001
-38.200001 -67.419998 -6
-38.139999 -67.580002 -6.0700002
-38.139999 -67.580002 -6.1700001
-38.058998 -67.790001 -6.23
-37.979 -68.010002 -6.2800002
-37.979 -67.980003 -6.3800001
-37.91 -68.190002 -6.4299998
-37.900002 -68.199997 -6.5300002
-37.900002 -68.209 -6.6199999
-37.889999 -68.239998 -6.71
-37.889999 -68.220001 -6.8099999
-37.988998 -67.959 -6.96
-39.07 -64.940002 -5.48
-38.689999 -65.949997 -5.48
-38.57 -66.25 -5.5599999
-38.389999 -66.730003 -5.5900002
-38.308998 -66.959 -5.6700001
-38.470001 -66.540001 -5.8400002
-38.209999 -67.220001 -5.8400002
-38.400002 -66.720001 -6.0100002
-38.389999 -66.739998 -6.1199999
-38.07 -67.580002 -6.0700002
-38.058998 -67.620003 -6.1700001
-37.970001 -67.849998 -6.21
-37.918999 -67.970001 -6.2800002
-37.849998 -68.160004 -6.3499999
-37.82 -68.239998 -6.4200001
-37.799 -68.290001 -6.5
-37.779999 -68.349998 -6.5900002
-37.779999 -68.339996 -6.6799998
-37.75 -68.419998 -6.75
-37.77 -68.360001 -6.8699999
-37.759998 -68.410004 -6.9499998
-38.988998 -65.010002 -5.5
-38.630001 -65.940002 -5.5100002
-38.470001 -66.370003 -5.5599999
-38.34 -66.720001 -5.6199999
-38.259998 -66.93 -5.6799998
-38.470001 -66.360001 -5.8699999
-38.459999 -66.400002 -5.98
-38.459999 -66.389999 -6.0900002
-38.450001 -66.410004 -6.1799998
-38.058998 -67.459 -6.0999999
-37.959999 -67.720001 -6.1500001
-37.939999 -67.760002 -6.25
-37.849998 -68.010002 -6.2800002
-37.77 -68.209 -6.3499999
-37.709999 -68.360001 -6.4099998
-37.75 -68.260002 -6.5300002
-37.738998 -68.279999 -6.5999999
-37.679001 -68.449997 -6.6700001
-37.668999 -68.480003 -6.75
-37.689999 -68.410004 -6.8499999
-37.679001 -68.459 -6.9499998
-38.859001 -65.169998 -5.5
-38.580002 -65.910004 -5.5300002
-38.279999 -66.709 -5.6399999
-38.220001 -66.860001 -5.71
-38.429001 -66.330002 -5.9000001
-38.429001 -66.309998 -6.0100002
-38.429001 -66.32 -6.0999999
-38.418999 -66.339996 -6.21
-37.939999 -67.599998 -6.0900002
-37.91 -67.690002 -6.1799998
-37.830002 -67.889999 -6.23
-37.808998 -67.949997 -6.3200002
-37.759998 -68.089996 -6.3800001
-37.66 -68.330002 -6.4299998
-37.668999 -68.330002 -6.52
-37.668999 -68.309998 -6.6199999
-37.650002 -68.389999 -6.6799998
-37.59 -68.519997 -6.75
-37.609001 -68.470001 -6.8499999
-37.639999 -68.400002 -6.96
-38.720001 -65.400002 -5.48
-38.488998 -65.989998 -5.5100002
-38.259998 -66.599998 -5.54
-38.168999 -66.839996 -5.6199999
-38.200001 -66.760002 -5.73
-38.988998 -64.68 -6.1500001
-38.400002 -66.239998 -6.0100002
-38.389999 -66.25 -6.1199999
-38.34 -66.410004 -6.21
-37.880001 -67.610001 -6.0900002
-37.830002 -67.730003 -6.1700001
-37.799 -67.82 -6.25
-37.679001 -68.139999 -6.2800002
-37.668999 -68.160004 -6.3699999
-37.618999 -68.279999 -6.4299998
-37.630001 -68.260002 -6.5300002
-37.618999 -68.290001 -6.6199999
-37.580002 -68.389999 -6.6799998
-37.52 -68.540001 -6.75
-37.558998 -68.449997 -6.8499999
-37.580002 -68.410004 -6.96
-38.689999 -65.300003 -5.48
-38.450001 -65.910004 -5.5100002
-38.220001 -66.510002 -5.54
-38.118999 -66.800003 -5.6199999
-38.109001 -66.82 -5.71
-38.939999 -64.629997 -6.1399999
-38.91 -64.720001 -6.25
-38.330002 -66.239998 -6.1199999
-38.27 -66.400002 -6.1999998
-37.84 -67.519997 -6.0900002
-37.779999 -67.690002 -6.1700001
-37.689999 -67.919998 -6.21
-37.618999 -68.099998 -6.2600002
-37.609001 -68.139999 -6.3499999
-37.549 -68.290001 -6.4200001
-37.57 -68.25 -6.52
-37.580002 -68.220001 -6.6199999
-37.539001 -68.32 -6.6799998
-37.450001 -68.559998 -6.73
-37.470001 -68.510002 -6.8200002
-37.52 -68.389999 -6.96
-38.679001 -65.150002 -5.48
-38.41 -65.839996 -5.5100002
-38.189999 -66.440002 -5.54
-38.109001 -66.650002 -5.6199999
-38.029999 -66.860001 -5.6999998
-38.900002 -64.550003 -6.1399999
-38.880001 -64.610001 -6.25
-38.849998 -64.699997 -6.3499999
-38.27 -66.220001 -6.21
-37.799 -67.449997 -6.0900002
-37.720001 -67.669998 -6.1500001
-37.679001 -67.790001 -6.23
-37.57 -68.050003 -6.2600002
-37.52 -68.190002 -6.3400002
-37.479 -68.290001 -6.4099998
-37.539001 -68.150002 -6.5300002
-37.5 -68.25 -6.5999999
-37.52 -68.190002 -6.71
-37.41 -68.5 -6.73
-37.41 -68.489998 -6.8200002
-37.429001 -68.440002 -6.9299998
-38.609001 -65.160004 -5.48
-38 -66.769997 -5.5999999
-37.970001 -66.849998 -5.6999998
-38.849998 -64.540001 -6.1399999
-38.830002 -64.599998 -6.25
-38.82 -64.620003 -6.3699999
-37.709999 -67.529999 -6.0700002
-37.66 -67.660004 -6.1500001
-37.609001 -67.790001 -6.23
-37.509998 -68.059998 -6.2600002
-37.470001 -68.190002 -6.3200002
-37.429001 -68.279999 -6.4099998
-37.389999 -68.389999 -6.48
-37.418999 -68.300003 -6.5900002
-37.400002 -68.370003 -6.6599998
-37.359001 -68.480003 -6.73
-37.380001 -68.419998 -6.8400002
-37.429001 -68.300003 -6.96
-38.57 -65.099998 -5.48
-37.950001 -66.75 -5.5900002
-37.880001 -66.93 -5.6799998
-38.808998 -64.5 -6.1399999
-38.779999 -64.57 -6.25
-38.759998 -64.629997 -6.3499999
-38.16 -66.199997 -6.1999998
-37.650002 -67.550003 -6.0700002
-37.609001 -67.660004 -6.1500001
-37.558998 -67.769997 -6.21
-37.52 -67.889999 -6.2800002
-37.400002 -68.199997 -6.3200002
-37.380001 -68.260002 -6.3899999
-37.34 -68.360001 -6.46
-37.308998 -68.449997 -6.5300002
-37.34 -68.349998 -6.6599998
-37.299 -68.480003 -6.71
-37.289001 -68.489998 -6.8099999
-37.289001 -68.489998 -6.8899999
-38.59 -64.870003 -5.48
-38.27 -65.709 -5.48
-37.900002 -66.68 -5.5700002
-38.759998 -64.43 -6.1199999
-38.709999 -64.559998 -6.21
-38.679001 -64.650002 -6.3200002
-37.618999 -67.440002 -6.0599999
-37.57 -67.57 -6.1399999
-37.509998 -67.720001 -6.1999998
-37.380001 -68.059998 -6.23
-37.368999 -68.099998 -6.3200002
-37.330002 -68.209 -6.3800001
-37.259998 -68.370003 -6.4299998
-37.279999 -68.339996 -6.5300002
-37.25 -68.400002 -6.6199999
-37.238998 -68.43 -6.6999998
-37.229 -68.470001 -6.7800002
-37.238998 -68.440002 -6.8800001
-37.889999 -66.510002 -5.5700002
-37.830002 -66.690002 -5.6500001
-37.720001 -66.970001 -5.71
-38.679001 -64.43 -6.21
-38.650002 -64.519997 -6.3200002
-37.509998 -67.529999 -6.1199999
-37.450001 -67.68 -6.1799998
-37.349998 -67.940002 -6.23
-37.289001 -68.099998 -6.2800002
-37.238998 -68.25 -6.3499999
-37.209999 -68.32 -6.4299998
-37.220001 -68.290001 -6.5300002
-37.200001 -68.349998 -6.5999999
-37.179001 -68.400002 -6.6799998
-37.168999 -68.43 -6.77
-37.168999 -68.43 -6.8499999
-37.209999 -68.309998 -6.98
-38.189999 -65.550003 -5.46
-37.859001 -66.43 -5.5700002
-37.738998 -66.75 -5.6199999
-37.700001 -66.849998 -5.71
-38.66 -64.309998 -6.1999998
-38.59 -64.5 -6.2800002
-37.459999 -67.480003 -6.0900002
-37.41 -67.620003 -6.1799998
-37.308998 -67.879997 -6.21
-37.279999 -67.970001 -6.2800002
-37.209999 -68.160004 -6.3499999
-37.168999 -68.260002 -6.4200001
-37.150002 -68.309998 -6.5
-37.179001 -68.239998 -6.5999999
-37.16 -68.290001 -6.6799998
-37.109001 -68.410004 -6.75
-37.118999 -68.400002 -6.8400002
-37.118999 -68.400002 -6.9299998
-38.16 -65.470001 -5.46
-37.849998 -66.300003 -5.5700002
-37.720001 -66.629997 -5.6199999
-37.668999 -66.769997 -5.71
-38.650002 -64.18 -6.21
-38.549 -64.470001 -6.2800002
-37.918999 -66.120003 -6.1199999
-37.429001 -67.419998 -6.0900002
-37.359001 -67.610001 -6.1700001
-37.279999 -67.809998 -6.21
-37.27 -67.830002 -6.3099999
-37.200001 -68.019997 -6.3499999
-37.118999 -68.220001 -6.4099998
-37.09 -68.300003 -6.4899998
-37.118999 -68.239998 -6.5900002
-37.109001 -68.25 -6.6799998
-37.058998 -68.400002 -6.7399998
-37.07 -68.370003 -6.8400002
-37.099998 -68.290001 -6.9499998
-38.179001 -65.25 -5.48
-37.979 -65.779999 -5.5300002
-37.75 -66.400002 -5.5599999
-37.66 -66.639999 -5.6199999
-37.700001 -66.519997 -5.75
-38.529999 -64.349998 -6.1799998
-37.868999 -66.080002 -6.0100002
-37.868999 -66.07 -6.1199999
-37.459999 -67.18 -6.04
-37.380001 -67.389999 -6.0900002
-37.308998 -67.559998 -6.1700001
-37.299 -67.589996 -6.2600002
-37.168999 -67.949997 -6.2800002
-37.130001 -68.040001 -6.3499999
-37.09 -68.150002 -6.4200001
-37.049 -68.25 -6.4899998
-37.07 -68.199997 -6.5900002
-37.07 -68.199997 -6.6799998
-37 -68.389999 -6.73
-37 -68.389999 -6.8200002
-37.058998 -68.25 -6.9499998
-38.25 -64.889999 -5.5100002
-37.77 -66.169998 -5.5700002
-37.599998 -66.620003 -5.6199999
-37.679001 -66.410004 -5.75
-37.808998 -66.059998 -5.9000001
-37.82 -66.040001 -6.0100002
-37.859001 -65.949997 -6.1199999
-37.32 -67.360001 -6.0900002
-37.25 -67.550003 -6.1500001
-37.220001 -67.629997 -6.23
-37.130001 -67.870003 -6.2800002
-37.058998 -68.059998 -6.3200002
-37.02 -68.160004 -6.4099998
-36.988998 -68.239998 -6.48
-37.029999 -68.139999 -6.5900002
-37.02 -68.150002 -6.6799998
-36.959999 -68.330002 -6.73
-36.950001 -68.360001 -6.8200002
-37.02 -68.160004 -6.96
-37.900002 -65.660004 -5.5100002
-37.689999 -66.209 -5.5599999
-37.59 -66.459 -5.6199999
-37.618999 -66.379997 -5.73
-37.75 -66.059998 -5.8899999
-37.779999 -65.970001 -6.0100002
-37.799 -65.93 -6.1199999
-37.259998 -67.349998 -6.0700002
-37.200001 -67.5 -6.1500001
-37.16 -67.610001 -6.23
-37.099998 -67.790001 -6.2800002
-37.058998 -67.889999 -6.3499999
-36.988998 -68.080002 -6.4099998
-36.950001 -68.160004 -6.48
-36.929001 -68.220001 -6.5599999
-36.868999 -68.400002 -6.5999999
-36.91 -68.279999 -6.73
-36.889999 -68.339996 -6.8099999
-36.950001 -68.190002 -6.9299998
-37.880001 -65.559998 -5.5300002
-37.529999 -66.470001 -5.6199999
-37.618999 -66.230003 -5.7600002
-37.738998 -65.93 -5.9000001
-37.759998 -65.870003 -6.0300002
-37.779999 -65.82 -6.1399999
-37.168999 -67.43 -6.0700002
-37.16 -67.470001 -6.1500001
-37.130001 -67.540001 -6.23
-37.009998 -67.860001 -6.2600002
-36.979 -67.940002 -6.3499999
-36.900002 -68.139999 -6.3899999
-36.889999 -68.18 -6.48
-36.900002 -68.139999 -6.5700002
-36.868999 -68.239998 -6.6399999
-36.849998 -68.290001 -6.73
-36.849998 -68.279999 -6.8200002
-36.900002 -68.169998 -6.9299998
-37.799 -65.620003 -5.5300002
-37.618999 -66.099998 -5.5700002
-37.470001 -66.489998 -5.6199999
-37.549 -66.279999 -5.7600002
-37.679001 -65.919998 -5.9000001
-37.709999 -65.849998 -6.0300002
-37.650002 -66.010002 -6.0999999
-37.150002 -67.339996 -6.0700002
-37.099998 -67.470001 -6.1500001
-37.049 -67.589996 -6.23
-37.009998 -67.699997 -6.3000002
-36.929001 -67.93 -6.3499999
-36.918999 -67.949997 -6.4299998
-36.830002 -68.18 -6.48
-36.868999 -68.089996 -6.5900002
-36.880001 -68.050003 -6.6799998
-36.82 -68.220001 -6.7399998
-36.789001 -68.309998 -6.8099999
-36.84 -68.160004 -6.9299998
-37.779999 -65.489998 -5.54
-37.558998 -66.07 -5.5700002
-37.429001 -66.410004 -5.6199999
-37.650002 -65.860001 -6.0100002
-37.618999 -65.940002 -6.1199999
-37.109001 -67.269997 -6.0900002
-37.058998 -67.400002 -6.1500001
-37.02 -67.529999 -6.23
-36.918999 -67.779999 -6.2800002
-36.889999 -67.860001 -6.3499999
-36.799 -68.110001 -6.3899999
