# .PCD v0.7 - Point Cloud Data file format
VERSION 0.7
FIELDS x y z intensity normal_x normal_y normal_z curvature
SIZE 4 4 4 4 4 4 4 4
TYPE F F F F F F F F
COUNT 1 1 1 1 1 1 1 1
WIDTH 623
HEIGHT 1
VIEWPOINT 0 0 0 1 0 0 0
POINTS 623
DATA ascii
-72.459984 -5.2396603 -14.965136 0 0.080623068 0.99571347 -0.045327257 0
-72.842003 -5.2691369 -14.651907 0 0.069019459 0.99709666 -0.03216441 0
-73.086746 -5.3488073 -14.466278 0 0.41434696 0.90079296 -0.12995628 0
-73.169907 -5.4286938 -14.398282 0 0.78252602 -0.28625935 -0.55290926 0.0051585026
-71.951302 -5.7903547 -15.372002 0 -0.14930545 0.92101675 0.35977218 0
-72.027428 -5.8802524 -15.314693 0 0.74740934 -0 -0.6643638 0
-72.06282 -6.0002079 -15.293734 0 0.05821649 0.96724802 0.24706715 0.0081122573
-73.720818 -5.7279429 -13.956622 0 0.31936198 0.93971676 -0.12223055 0.0065341792
-74.624619 -6.0167146 -13.241677 0 -0.053160734 -0.21302466 0.97559953 0
-74.589119 -6.1167607 -13.264758 0 0.79486734 -0.26308125 -0.54678541 0.15015112
-74.701439 -6.1866121 -13.186243 0 0.83559591 -0.37582996 -0.40066361 0
-74.768044 -6.2565212 -13.132028 0 0.45030174 -0.080576457 0.88923323 0.092341103
-72.504951 -5.2295766 -14.876945 0 0.09691792 0.99337226 -0.061794285 0
-72.931442 -5.2689967 -14.538769 0 0.020944398 0.9997806 -0.00034690529 0
-73.100151 -5.3487697 -14.41041 0 0.7553249 -0.64377236 0.12264332 0
-71.954887 -5.7903275 -15.318266 0 0.16968738 -0.93419302 -0.31383038 0
-71.974014 -5.9003053 -15.312048 0 0.77796358 -0.24584296 -0.57821614 0
-72.009094 -6.0102606 -15.29014 0 0.23339002 -0.78694159 -0.57118475 0.0044444725
-73.717674 -5.7279277 -13.914533 0 0.46879533 0.87628353 -0.1111672 0.00043900014
-73.90905 -5.7976656 -13.758846 0 0.1782072 -0.97769678 -0.11113627 0.0099223377
-74.55217 -6.0167899 -13.245212 0 0.24447899 0.95279187 -0.18004911 0.0017687576
-74.66333 -6.1866422 -13.166012 0 0.078836016 0.9924714 -0.093729958 0.0037789191
-74.638313 -6.2966766 -13.185694 0 0.46494427 0.42640349 -0.77589101 0
-72.403412 -5.2396984 -14.920412 0 0.16515879 0.98327082 -0.076818049 0
-72.693176 -5.2992992 -14.679175 0 0.20868854 0.97566801 -0.067238122 0
-73.102783 -5.3387437 -14.356988 0 0.18154691 0.98107469 -0.067328654 0
-73.11335 -5.4487314 -14.353548 0 0.5562132 -0.34829742 -0.75453019 0
-71.91375 -5.7903705 -15.3211 0 0.035529081 0.99743962 0.062063184 0.0026258111
-71.954941 -5.9003134 -15.285646 0 0.77796358 -0.24584296 -0.57821614 0
-71.996742 -6.0102563 -15.252096 0 0.3634429 -0.30181643 -0.88137174 0.012531949
-73.673782 -5.7479696 -13.908799 0 0.88505197 0.23601402 -0.40122354 0
-74.517487 -6.0368209 -13.235444 0 0.63838732 0.046761896 -0.76829356 0
-74.600014 -6.1067061 -13.165546 0 0.91697115 -0.39691657 0.040262893 0
-74.625862 -6.1966724 -13.147686 0 0.44838935 -0.65679544 -0.60627288 0
-74.482819 -6.3368654 -13.257182 0 0.11555023 -0.85876608 0.49916828 0.0079290196
-72.390755 -5.2396946 -14.881411 0 0.56936574 -0.66820419 -0.47887972 0
-72.807739 -5.2691255 -14.546324 0 -0 1 -0 0
-73.100586 -5.3387275 -14.314595 0 0.18154691 0.98107469 -0.067328654 0
-73.090233 -5.4487395 -14.317945 0 0.39901951 -0.38829938 -0.8306666 0.0093458584
-73.107521 -5.5387158 -14.302867 0 0.42069721 -0.40596962 -0.81129682 0.025539735
-72.435783 -5.7996383 -14.856243 0 0.32464668 0.94442677 -0.051599476 0
-72.617645 -5.8693876 -14.703644 0 0.82285845 -0.34732607 -0.4497427 0
-73.661125 -5.7479658 -13.869802 0 0.22743011 -0.95863008 -0.17118396 0
-74.495285 -6.0168276 -13.199538 0 0.78425229 -0.57424831 -0.23491976 0
-74.498489 -6.1268282 -13.209004 0 0.41555932 0.19517617 -0.88837868 0.015833242
-74.61319 -6.1866684 -13.108692 0 0.55997682 0.52886599 -0.63775134 0
-74.555344 -6.2967496 -13.160053 0 0.81838495 0.080342568 -0.56902647 0.088110678
-72.388222 -5.2396793 -14.84123 0 0.16110024 0.98692846 -0.0043618884 0.0092080347
-72.887978 -5.2689967 -14.437222 0 0.38661119 0.86307073 0.32502389 0.078944765
-73.031235 -5.3488035 -14.327639 0 0.12074286 0.99262643 0.010673403 0
-73.047287 -5.4587808 -14.311911 0 0.27031922 -0.38098508 -0.8841821 0.019461911
-71.863609 -5.8003964 -15.263775 0 -0.051863924 0.98541456 0.16207476 0
-72.522423 -5.7694979 -14.734554 0 0.83608818 -0.52696085 -0.15254131 0
-72.557495 -5.8794522 -14.712648 0 -0.12354157 0.93891585 0.32120809 0
-73.658607 -5.7479506 -13.829619 0 0 0.99503726 -0.099503733 0
-74.460922 -6.0468583 -13.190713 0 0.31412333 0.93418437 -0.16919242 0.017973647
-74.419319 -6.1469154 -13.224183 0 0.25066048 0.95196319 -0.17588465 0
-74.56929 -6.1967106 -13.102966 0 0.07503023 0.99603426 -0.047815487 0.0011106592
-74.629768 -6.2666316 -13.062304 0 0.4391923 0.40084219 0.80401224 0
-72.328087 -5.2597446 -14.850231 0 0.094558261 0.99279433 -0.073608592 0.011394369
-72.843758 -5.2690387 -14.430546 0 0.20698665 0.8285073 0.52031934 0.095381059
-73.053543 -5.3487544 -14.266779 0 0.12074286 0.99262643 0.010673403 0
-72.993553 -5.4588337 -14.308321 0 0.20786206 -0.11566079 -0.97129601 0
-71.854355 -5.8003936 -15.235241 0 0.022044379 0.99852198 0.049678095 3.9011361e-06
-72.462288 -5.7895627 -14.743553 0 0.87366301 0.072615996 -0.48108202 0
-72.535637 -5.8794594 -14.677689 0 0.23748901 0.84148908 -0.48527837 0.00080746098
-73.655769 -5.7479358 -13.78848 0 0.18776907 0.96868712 -0.16244392 0.013082346
-74.489929 -6.0167975 -13.118218 0 0.70981669 0.67073494 -0.21511619 0
-74.37542 -6.1569576 -13.218453 0 0.31487867 0.92806345 -0.19887075 0
-74.541008 -6.1967297 -13.080601 0 0.059443489 0.99821728 0.0053487513 0.0022790192
-74.560127 -6.2967076 -13.074389 0 0.17198458 0.98273432 -0.068223923 0.031058231
-72.398178 -5.2396264 -14.742323 0 0.12710826 0.98366976 -0.12742575 0.0072932877
-72.948906 -5.3488755 -14.300735 0 0.15604627 0.98338598 -0.092744492 0
-72.475151 -5.5495243 -14.686831 0 0.15418003 0.84517825 -0.51176381 0.0034439496
-71.816559 -5.8004236 -15.215963 0 0.7884047 0.43498129 -0.43498194 0
-72.465874 -5.7895355 -14.689823 0 0.87430757 0.065216281 -0.48097107 0
-72.500931 -5.8794904 -14.667925 0 0.67329919 -0.43747362 -0.59605783 0
-73.643089 -5.7279315 -13.74949 0 0.23237109 0.9356541 -0.26562196 0.0019985687
-74.445732 -6.0368395 -13.111535 0 0.34304681 0.91439182 -0.21495703 0
-74.356339 -6.1569653 -13.192052 0 0.31487867 0.92806345 -0.19887075 0
-74.528664 -6.1967254 -13.042553 0 0 1 0 0
-74.531845 -6.2967262 -13.052023 0 0.122021 0.9817118 -0.14612611 5.4426717e-05
-72.293549 -5.2397475 -14.776281 0 0.012267029 0.99350452 -0.11312912 0.0072992505
-72.736298 -5.2891445 -14.423361 0 0.19814816 0.83723962 0.5096736 0.1003291
-72.796806 -5.3790655 -14.38269 0 0.35780492 0.71676016 0.5985235 0.041499168
-72.395981 -5.5696115 -14.702005 0 0.15626507 0.8396889 -0.52009976 0.0012276323
-71.829659 -5.8003855 -15.159145 0 0.30309165 0.92078453 -0.24554263 0
-72.462708 -5.7695208 -14.647745 0 0.079576969 0.97407901 -0.211749 0.010245341
-72.462822 -5.8795204 -14.647701 0 0.51085138 -0.42101663 -0.74951708 0
-73.567024 -5.7580194 -13.774174 0 0.18810305 0.94587988 -0.26443961 0.010378288
-74.452377 -6.0168138 -13.067321 0 0.1849243 0.91325307 -0.36300388 0.019966545
-74.360229 -6.1469383 -13.139276 0 0.069237076 0.97944021 -0.18948112 0.0067354506
-74.519089 -6.1967225 -13.013065 0 0.099928528 -0.99169588 -0.08095476 0
-74.535118 -6.2866998 -12.997347 0 0.16437154 -0.98622936 -0.018263493 0
-74.535202 -6.3766994 -12.997311 0 0.37972564 -0.11625034 -0.91776592 0
-72.294113 -5.2397337 -14.745609 0 0.038933553 0.99186528 -0.12119166 0.0085652843
-72.876419 -5.3689365 -14.27169 0 0.062790632 0.99192482 -0.11019347 0.0073540737
-72.367393 -5.5696301 -14.678696 0 0.44960842 0.50188839 -0.7388913 0
-71.769501 -5.8004503 -15.168154 0 0.0082864752 0.9959057 -0.090017356 0.0018894987
-72.411438 -5.7895756 -14.654919 0 0.29055771 0.82808965 -0.47942024 0
-72.562073 -5.8693695 -14.532425 0 0.086139821 0.99555331 -0.038124513 0
-73.539047 -5.7580385 -13.752766 0 0.32808661 0.87036449 -0.36718503 0
-74.37323 -6.0469003 -13.082492 0 0.72871906 -0.054180015 -0.68266606 0
-74.315697 -6.1569805 -13.131642 0 0.12059493 -0.98290533 0.13911891 0
-74.491112 -6.1967416 -12.991657 0 0.0035703944 0.99971032 0.023802627 0
-74.491211 -6.2967415 -12.991617 0 0.079265393 -0.99565941 0.048778705 0
-74.507225 -6.3767185 -12.975899 0 0.73844552 -0.19475485 -0.64557636 0
-72.129089 -5.2599335 -14.820187 0 0.077847183 0.98427129 -0.15858713 0.0020782654
-72.91526 -5.3488646 -14.197056 0 0.034120157 0.99386001 -0.10525244 0.010387114
-72.348907 -5.5496383 -14.654203 0 0.13840914 0.88581848 -0.44290924 0
-71.740906 -5.8004694 -15.14484 0 0.078631081 0.95765615 -0.27696919 0
-72.398758 -5.7695718 -14.615925 0 0.0952406 0.96885306 -0.22858922 0.013574122
-73.533119 -5.7480226 -13.702125 0 -0.0091450242 0.98884302 -0.14868046 0
-74.045509 -5.8273296 -13.304519 0 0.15837254 0.77925253 0.60636908 0
-74.220306 -5.8770905 -13.162622 0 0.41086158 0.58455503 0.69963437 0
-74.370361 -6.0168858 -13.041368 0 0.21490633 0.85022283 -0.4805584 0.0089933844
-74.405418 -6.1168404 -13.019469 0 0.13818046 0.51524401 0.84583086 0.011635737
-74.437386 -6.1967945 -12.988066 0 -0.047090687 0.98942649 0.13717793 0.00054303359
-74.47213 -6.2867494 -12.965214 0 0.22036965 0.87363595 -0.43381745 0.010071147
-74.472214 -6.376749 -12.965178 0 -0.077793732 0.99114954 0.10756663 0
-72.880241 -5.3488955 -14.186338 0 0.046045516 0.99302518 -0.10853924 0.010228462
-72.313896 -5.5496693 -14.643486 0 0.012162744 0.93265349 -0.36056855 0.0086712688
-71.738373 -5.7904549 -15.104658 0 0.010370837 0.96677643 -0.25541294 0.0020586301
-72.371735 -5.7695899 -14.594206 0 0.050964296 -0.97851449 0.19978003 0
-73.491974 -5.7480659 -13.704959 0 -0.0038593896 0.98800462 -0.15437573 0
-74.24942 -5.9470296 -13.090091 0 -0.060852338 0.76051694 0.64646024 0.00013145825
-74.351585 -6.0168939 -13.015922 0 0.3805922 0.69594002 -0.60894752 0
-74.319832 -6.1269393 -13.04725 0 0.078823365 0.945328 -0.316452 0.00072124816
-74.402359 -6.1968255 -12.97735 0 0.20104739 -0.43630275 -0.87705171 0.00087698211
-74.453659 -6.2867575 -12.940718 0 0.017643185 0.9456749 -0.3246347 0
-74.453743 -6.3767571 -12.940681 0 0.03862479 0.98879462 -0.14419922 0
-72.801361 -5.3489828 -14.202475 0 0.05013638 0.97753066 -0.20474452 0.0013446307
-72.295425 -5.5496774 -14.61899 0 0.092955209 -0.9670276 0.2371012 0.0044229785
-71.750496 -5.7704177 -15.048157 0 -0.0018723536 0.95864522 -0.28459778 0
-72.352654 -5.7695975 -14.567808 0 -0.023814572 0.99535185 -0.093314238 0
-73.438248 -5.7481189 -13.701365 0 -0.046023313 0.73637301 0.67500865 0
-73.628334 -5.7978573 -13.545048 0 0.12066866 0.97083098 0.20718673 0.008962892
-74.316574 -6.0169244 -13.005206 0 0.038506009 0.99662614 -0.0724819 0
-74.25563 -6.1270046 -13.047057 0 0.071856618 0.64271832 0.76272523 0.13783145
-74.348938 -6.1968784 -12.97471 0 0.052920494 0.94128013 0.33345357 0.0066172727
-74.43486 -6.2667656 -12.915279 0 0.18395281 0.8955586 -0.40513721 0.0066161733
-74.425461 -6.3767762 -12.918322 0 0.079444073 -0.99569899 0.047666442 0
-72.457863 -5.2894344 -14.440125 0 0.14187497 0.36897829 0.91854584 0.0031280441
-72.25119 -5.5397196 -14.612319 0 0.040595695 -0.95785058 0.28438392 0.0070637264
-71.706917 -5.7704587 -15.040222 0 0.055308752 0.94300026 -0.32816377 0.0018182414
-72.318245 -5.7596283 -14.559 0 0.100176 -0.99485129 0.015352643 0
-73.384201 -5.7481718 -13.696828 0 0.11275093 0.86960024 -0.48071063 0
-73.702759 -5.7677398 -13.447296 0 -0.032212555 0.99726224 0.066560067 0.0097909281
-74.263145 -6.0169778 -13.002564 0 0.13502276 0.95202488 -0.27462256 0
-74.288689 -6.1069431 -12.983759 0 0.96467066 -0.18769793 0.18487844 0
-74.298286 -6.1969323 -12.980637 0 0.27248281 -0.41482109 -0.86814553 0.10097081
-74.406586 -6.2667847 -12.892918 0 0.18664452 -0.98121691 -0.04875613 0
-74.397163 -6.3667955 -12.895967 0 -0.0090339351 0.99373251 -0.11141851 0
-71.621208 -5.6605573 -15.068048 0 0.28129756 -0.22767518 -0.93222088 0.036733802
-71.663002 -5.7705007 -15.034494 0 -0.041065078 0.98556191 0.16426031 0
-72.305588 -5.7596245 -14.519999 0 0.023157731 0.99156618 -0.12751602 0.0033589955
-73.3498 -5.7482028 -13.688018 0 0.21293628 0.87036467 -0.44398582 0.00068269618
-74.250488 -6.0169735 -12.963567 0 -0.010960949 0.99963844 0.024552526 0
-74.17765 -6.1270761 -13.030305 0 0.35094315 0.61555797 -0.70563966 0
-74.250687 -6.2169733 -12.963487 0 0.55980164 0.74820077 -0.35611483 0
-74.378288 -6.2668037 -12.870556 0 -0.087562941 0.987324 0.13237861 0
-74.368881 -6.3668146 -12.873603 0 0.070227787 0.98318875 -0.16854665 0
-72.312111 -5.2995982 -14.476914 0 0.73366898 0.52753884 0.42829031 0.014217183
-71.602737 -5.6605654 -15.04355 0 0.83749759 -0.19814344 -0.50925142 0
-71.618782 -5.7705426 -15.027819 0 -0.14781404 0.22752257 0.96248871 0.014211242
-72.287125 -5.7596326 -14.495501 0 -0.013589669 0.99640822 -0.083582483 0.0033699758
-73.35614 -5.7281766 -13.642856 0 0.24247162 0.94569975 -0.21647091 0
-74.209358 -6.0170164 -12.966405 0 -0 1 -0 0
-74.142952 -6.1471071 -13.020534 0 0.025904087 0.9881044 -0.15158673 0.019327002
-74.308228 -6.1868792 -12.881733 0 -0.14738981 0.49104676 0.85857403 0
-74.350006 -6.2668228 -12.84819 0 -0.096459955 0.98603511 0.13575846 0
-74.350105 -6.3668227 -12.848151 0 0.14500964 -0.97363591 -0.17608312 0
-71.574142 -5.6605844 -15.020235 0 0.83749759 -0.19814344 -0.50925142 0
-71.599701 -5.7705507 -15.001419 0 0.35165319 -0.18637016 -0.91739106 0
-72.217453 -5.7597084 -14.507601 0 0.082240134 0.99448138 -0.065140702 0
-73.369247 -5.7281384 -13.586028 0 0.2123794 0.95759338 -0.19470514 0.0032657995
-74.11425 -6.0371265 -12.99727 0 -0.088134252 -0.38200587 0.91994774 0.094059475
-74.123856 -6.1271152 -12.994145 0 -0.031688165 0.99595982 -0.084023908 0.022218304
-74.264313 -6.1869211 -12.876007 0 0.11620343 0.9603824 -0.25330305 0.0036106617
-74.324806 -6.2668428 -12.835342 0 0.06141052 0.98256952 0.17545895 0
-74.324905 -6.3668427 -12.835303 0 0.14500964 -0.97363591 -0.17608312 0
-72.650177 -5.3491025 -14.125378 0 0.33478475 0.19570334 -0.92174798 0.032742117
-72.281219 -5.5196028 -14.413327 0 0.86595529 0.43992043 -0.23788962 0
-72.249451 -5.6296482 -14.444655 0 0.92646563 0.36358196 -0.097311638 0
-72.141365 -5.7697968 -14.532291 0 0.061596446 0.99733382 -0.039128624 0.00024383952
-73.277542 -5.7482495 -13.627355 0 0.13216218 0.98047525 -0.14560711 0.0084862802
-74.1623 -6.0170436 -12.91859 0 0.32855612 0.93673438 -0.12074597 0
-74.095886 -6.1271343 -12.972735 0 0.29930612 0.86383253 -0.4052273 0.020490892
-74.239136 -6.1969414 -12.863153 0 0.22811307 -0.5724476 -0.78757119 0
-74.289787 -6.2668734 -12.824629 0 0.061526306 0.99778205 -0.025408028 0.018675359
-74.296318 -6.3668613 -12.811992 0 0.55261892 -0.21674259 -0.80475765 0.006473009
-72.564575 -5.3492017 -14.153158 0 0.33478475 0.19570334 -0.92174798 0.032742117
-72.297401 -5.5195656 -14.366019 0 0.86189419 0.45782986 0.21801423 0
-72.2463 -5.6296334 -14.402568 0 0.92646563 0.36358196 -0.097311638 0
-72.297607 -5.7295656 -14.365935 0 0.54796904 -0.42979339 -0.71764022 0.069145396
-73.248955 -5.7482686 -13.604043 0 0.21235876 0.97649091 -0.037003152 0.01077093
-74.159767 -6.0170288 -12.878411 0 0.48236218 0.87277162 -0.074809 0
-74.086311 -6.1271315 -12.943244 0 0.035096548 0.99898088 -0.028380664 0.016364727
-74.193649 -6.1969843 -12.855837 0 0.47276524 -0.70550448 -0.52797395 0.018063935
-74.252327 -6.2869039 -12.806299 0 0.105653 0.99345112 0.043502081 0.020767536
-72.580444 -5.3491645 -14.104897 0 0.5915131 0.42990315 0.68212575 0.041625217
-72.545914 -5.4592099 -14.127665 0 0.5359422 0.31818512 0.78200012 0
-72.221413 -5.6296535 -14.390672 0 0.92646563 0.36358196 -0.097311638 0
-72.087883 -5.7698355 -14.497078 0 0.06467621 0.99773526 -0.018476972 7.0435271e-05
-72.32312 -5.8395171 -14.314544 0 0.57967234 -0.45679796 -0.67477071 0
-73.156937 -5.7683797 -13.644415 0 0.15122966 0.98819256 -0.024596754 0.0011673307
-74.184509 -6.0069814 -12.828329 0 0.47478989 0.87912714 -0.041352667 0
-74.045502 -6.1471744 -12.947024 0 0.035096548 0.99898088 -0.028380664 0.016364727
-74.335213 -6.1567755 -12.705808 0 0.26556736 0.71616066 -0.64543623 0.012213075
-74.242737 -6.2669005 -12.776819 0 0.25707817 -0.85909665 -0.44256493 0
-72.695755 -5.4489903 -13.9739 0 0.46822321 -0.8105517 -0.35181391 0
-72.237297 -5.6296163 -14.342412 0 0.84692365 -0.51889825 -0.11603856 0
-72.212288 -5.7596502 -14.362082 0 0.48322439 -0.49237552 -0.72392029 0.082913555
-73.281609 -5.7281947 -13.510385 0 0.48746237 0.86063385 -0.14727423 0
-74.083946 -6.0371027 -12.871474 0 0.46788719 0.46158898 -0.7536692 0.034957591
-74.067795 -6.1271253 -12.886176 0 0.70180768 0.5398857 -0.46474668 0.060852237
-74.265564 -6.1768517 -12.717894 0 0.46636027 -0.15899111 0.87018955 0
-74.227066 -6.2869096 -12.760874 0 0.50875455 -0.59960383 -0.61777341 0
-72.695999 -5.4489765 -13.942272 0 0.26076844 -0.85365534 -0.45085743 0.0040057176
-72.450874 -5.5993056 -14.125908 0 0.72116947 0.34927246 0.59826696 0
-72.234894 -5.7596016 -14.302176 0 0.42932397 -0.59052795 -0.68334299 0.074636765
-72.304596 -5.8395114 -14.257468 0 0.69745678 -0.43398783 -0.5702706 0
-73.237419 -5.7582364 -13.503696 0 0.23976432 0.97055161 0.023297122 0.0052201189
-73.580811 -5.7677708 -13.233494 0 0.12412731 0.98531222 0.11726998 0.013301914
-74.080803 -6.0370874 -12.829389 0 0.60860127 0.7376985 -0.29224211 0
-74.157616 -6.1969857 -12.77396 0 0.46195161 -0.71678609 -0.52232021 0.030942934
-72.660995 -5.4590077 -13.931555 0 0.26076844 -0.85365534 -0.45085743 0.0040057176
-72.769302 -5.5388594 -13.843833 0 0.87340391 -0.013004558 0.48682296 0.063388146
-72.218903 -5.7596102 -14.285284 0 0.40578094 -0.59972608 -0.68968862 0.075805768
-72.251183 -5.8595643 -14.254826 0 0.36970738 -0.47647896 -0.7976743 0.045799594
-73.228157 -5.7582335 -13.475159 0 0.24233526 0.96579033 0.092318207 0
-74.039673 -6.0471301 -12.832219 0 0.91578686 0.2257718 -0.33220711 0
-74.183105 -6.2969375 -12.72257 0 0.49602214 -0.60300231 -0.62478018 0.036728013
-72.750832 -5.5388675 -13.819337 0 0.85430253 -0.091606654 0.51163995 0
-72.769974 -5.6488452 -13.813121 0 0.77077717 -0.072382458 0.63297981 0.095406599
-72.245018 -5.8695626 -14.235798 0 0.36970738 -0.47647896 -0.7976743 0.045799594
-73.129402 -5.7683568 -13.527185 0 0.25018325 0.96741962 0.038828481 0.0060290983
-74.11335 -6.2170134 -12.7347 0 0.022723472 0.099514239 0.99477667 0.052933041
-74.031013 -6.3371272 -12.804519 0 0.02524806 0.95502174 0.29545894 0.0099080764
-72.776222 -5.5388198 -13.767987 0 0.87378603 -0.12491114 0.46999499 0
-72.837036 -5.6287403 -13.728269 0 0.79904509 -0.29900995 0.52165127 0.043270219
-73.129959 -5.7683425 -13.496513 0 0.26155365 0.95336878 0.15059149 0
-73.906647 -6.187284 -12.875381 0 0.6764614 -0.29325378 0.67557549 0.011330415
-73.897232 -6.2872953 -12.878429 0 0.75410497 -0.2657291 0.60059452 0
-74.04689 -6.3370905 -12.756261 0 0.02524806 0.95502174 0.29545894 0.0099080764
-72.852913 -5.6287031 -13.680011 0 0.80858862 -0.058622442 0.58544672 0.036240991
-72.993088 -5.7085094 -13.560914 0 0.084926344 0.99585849 -0.032458302 0.011874847
-73.136322 -5.7683167 -13.451344 0 0.54771763 0.82782078 0.12131856 0
-74.031219 -6.0470996 -12.741391 0 0.73137861 0.65826035 -0.17826539 0
-73.888176 -6.1872921 -12.850885 0 0.6764614 -0.29325378 0.67557549 0.011330415
-73.989822 -6.3371563 -12.774783 0 0.020989684 0.96040446 0.27781776 0.013800597
-72.900978 -5.6286201 -13.601329 0 0.0044118818 0.61902463 0.7853592 0.091076285
-72.910591 -5.7286096 -13.598201 0 0.656205 0.71585995 0.23862 0
-73.069771 -5.7983932 -13.47294 0 0.4020499 0.9131217 0.067562796 0
-73.821518 -6.1073694 -12.872526 0 0.1973196 0.97812456 -0.065857448 0.016928647
-73.948814 -6.1571994 -12.778644 0 0.21197717 -0.53814733 0.81575924 0.036859199
-73.980888 -6.3571534 -12.747191 0 0.031353917 0.96260327 0.26909453 0.015110398
-72.911148 -5.7285957 -13.567533 0 0.12884249 0.98552936 0.11014292 0.0090943845
-73.171791 -5.7682438 -13.366234 0 0.5514015 0.83352089 0.034630526 0
-73.722679 -6.0374928 -12.924584 0 0.93707132 -0.19831404 0.28734815 0.14085717
-73.754959 -6.1274462 -12.894126 0 0.30568278 0.94683284 -0.10032667 0
-73.974411 -6.357151 -12.727218 0 0.031353917 0.96260327 0.26909453 0.015110398
-72.87001 -5.7286386 -13.570365 0 0.38648066 0.92168838 0.033515953 0
-73.121475 -5.7882977 -13.373098 0 0.73356289 -0.62964654 0.25579393 0
-73.773804 -6.0174108 -12.855422 0 0.33471411 0.94200027 -0.024536815 0
-73.815598 -6.1073532 -12.82188 0 0.23316674 0.96986294 -0.070705034 0.0052164728
-72.905228 -5.7285795 -13.516883 0 0.16461392 0.98198313 0.092797004 0.010934448
-72.997292 -5.8184543 -13.443889 0 -0.036759868 0.92213815 0.38511029 0.049074546
-73.697746 -6.0474982 -12.880105 0 0.89324987 -0.4174065 -0.16696259 0
-73.749039 -6.1274304 -12.843482 0 -0 1 -0 0.00230946
-74.007065 -6.3370771 -12.633554 0 0.68554306 -0.72089374 0.10170014 0.080882356
-72.854607 -5.7486339 -13.522799 0 0.12863664 0.98707682 0.095561624 0.016181961
-73.733253 -6.0374398 -12.82758 0 0.22277269 0.96538717 -0.13564648 0.013575587
-73.739777 -6.1274271 -12.814944 0 -0.078346558 0.99070477 0.11120157 0
-73.933678 -6.2671666 -12.666842 0 0.33994985 0.74149984 -0.57845676 0.19390668
-72.698837 -5.7688365 -13.625914 0 0.37930444 0.69849366 0.60682362 0.011371584
-73.698242 -6.0374703 -12.816869 0 0.020818602 0.9909696 -0.13246097 0.0039393608
-73.717354 -6.1274481 -12.810658 0 -0.044485327 0.99647129 0.071176521 0
-73.872986 -6.3772326 -12.677063 0 0.35482639 0.75220996 -0.55522823 0.19232292
-72.972595 -5.8184462 -13.367797 0 -0.036759868 0.92213815 0.38511029 0.049074546
-73.284737 -5.8380265 -13.130862 0 0.28825894 0.84919196 0.44247013 0.0028525481
-73.650681 -6.0475254 -12.832299 0 0.6381427 -0.75944257 -0.12657377 0
-73.692467 -6.1274681 -12.798759 0 -0.049840733 0.99372894 0.10009324 0.00035198571
-73.667183 -6.0374885 -12.785939 0 0.024708295 0.98732597 -0.15677036 0.0073782881
-73.686295 -6.1274662 -12.779731 0 -0.050218701 0.99564028 0.078603186 0
-73.19297 -5.8581233 -13.139618 0 0.29673889 0.84625882 0.44248399 0.0024665506
-73.629128 -6.0375328 -12.798287 0 0.097583391 0.97655195 -0.19189514 0.0018282562
-73.635643 -6.1275206 -12.785655 0 0.13143238 0.98136181 -0.14019455 0
-73.377846 -5.9078593 -12.963962 0 0.42223862 0.71304208 0.55971915 0.021784293
-73.587997 -6.0475755 -12.801122 0 0.25256807 0.9663474 0.048805378 0
-73.634941 -6.1275072 -12.754338 0 0.17849419 -0.9648335 -0.1929667 0
-73.32077 -5.9079256 -12.982486 0 0.10373639 0.9427985 -0.31681189 0.0051386016
-73.521339 -5.9676523 -12.822762 0 0.51437867 -0.027635012 0.85711777 0
-73.511925 -6.0676632 -12.825809 0 -0.049690403 0.99380803 -0.099380806 0
-73.597847 -6.1275501 -12.766379 0 -0.034137379 0.46750867 0.88332915 0
-73.346146 -5.8978772 -12.931145 0 0.39339566 0.72257984 0.56843483 0.028109776
-73.448341 -5.9777417 -12.856966 0 0.30991966 0.056568258 0.94907844 0.00096693746
-73.498993 -6.0476732 -12.818442 0 -0.049690403 0.99380803 -0.099380806 0
-73.598099 -6.1275363 -12.734757 0 0.11561082 -0.98566484 0.12287778 0
-73.302002 -5.9079337 -12.957032 0 0.10373639 0.9427985 -0.31681189 0.0051386016
-73.493149 -6.0676713 -12.80036 0 0.21951219 -0.97560978 -0 0
-73.642807 -6.1174664 -12.678191 0 -0.056167264 0.99249411 -0.10863119 0
-73.200485 -5.9380555 -13.000493 0 0.48796096 0.71337008 0.50298828 0
-73.467957 -6.0676913 -12.787512 0 0.20759544 0.94900775 -0.23725194 0
-73.337219 -5.9778605 -12.870949 0 -0.023656741 0.78626382 0.6174379 0.018988449
-73.470963 -6.0476785 -12.764457 0 0.20759544 0.94900775 -0.23725194 0
-73.439339 -6.0477104 -12.764209 0 0.20759544 0.94900775 -0.23725194 0
-73.522606 -6.2275968 -12.696166 0 0.65022564 -0.18952261 -0.73572266 0.065977074
-73.232719 -6.1079812 -12.904854 0 0.71490324 0.43652898 0.54621959 0
-73.40152 -6.2677546 -12.776466 0 0.24237758 -0.78159076 0.57477731 0.013264589
-75.49807 -5.0171247 -16.228092 0 0.11964996 0.98767924 -0.10086415 0.015822377
-75.614876 -5.0370355 -16.296375 0 0.4958896 -0.70205241 0.5110929 0.083141625
-75.301544 -6.2865534 -14.451853 0 0.98207748 0.057873335 -0.17937237 0.021999938
-75.289642 -6.4265494 -14.414699 0 0.90854341 0.34990969 0.22828071 0
-74.620232 -6.2966285 -13.032801 0 0.18351986 0.98189771 -0.046876788 0.041156892
-75.411217 -5.5964766 -14.533016 0 0.91383278 -0.029086728 0.40504766 0
-75.305748 -5.8364844 -14.304381 0 0.53004217 0.11451819 0.84020293 0.087791659
-75.395889 -6.0164714 -14.484336 0 0.19088231 0.78136659 0.59416348 0.1229631
-75.290352 -6.1264935 -14.288327 0 0.21689962 0.1919045 0.95714533 0.039067626
-75.34967 -6.2864847 -14.405746 0 0.96323252 0.26832828 -0.01352864 0.046878427
-75.293716 -6.4064946 -14.297729 0 0.86505109 0.47096896 0.17284332 0.0099251559
-75.673393 -5.5063782 -14.920009 0 0.26331571 -0.96467483 -0.0081983693 0
-75.465195 -5.5864096 -14.504988 0 0.062164735 0.19755234 0.97831935 0.049799953
-75.365761 -5.6964197 -14.295425 0 -0.095925853 0.95571607 0.27821755 0.052631821
-75.371773 -5.8364215 -14.313443 0 0.53004217 0.11451819 0.84020293 0.087791659
-75.428009 -6.0064116 -14.421343 0 0.87509918 -0.34845781 0.33582526 0
-75.337845 -6.1164246 -14.240321 0 0.7386964 0.39338246 0.54733706 0.094288327
-75.332108 -6.2464228 -14.222196 0 0.9374063 0.090249717 0.33633974 0
-75.33535 -6.3964233 -14.231646 0 0.74084622 0.31583706 -0.59278482 0.23284991
-76.00795 -5.4262614 -15.432807 0 0.65920532 -0.75006199 -0.053435512 0.030105736
-75.774193 -5.5162988 -14.971402 0 0.19673792 -0.92900872 -0.31342775 0
-75.575249 -5.5963326 -14.584915 0 0.091825441 0.8262955 0.55570126 0.029076146
-75.456749 -5.7063508 -14.348958 0 -0.09594167 0.95586252 0.27770847 0.051964018
-75.394623 -5.8263583 -14.221915 0 0.043637823 0.99432158 -0.097057454 0.00021081853
-75.453926 -5.9763498 -14.339336 0 0.87782854 -0.35393956 0.32271332 0.0046832673
-75.392128 -6.1063576 -14.21324 0 0.84849143 0.26160023 0.46003008 0.010192858
-75.338959 -6.2263684 -14.113782 0 0.090963289 -0.95548689 0.28066075 0.024170164
-75.361267 -6.3763614 -14.149637 0 0.62166876 -0.72871554 0.28723091 0
-75.856209 -5.5162268 -14.997355 0 0.17290172 -0.9507674 -0.25718942 0.007939118
-75.68502 -5.6162553 -14.663894 0 0.15711375 0.76742452 0.62159061 0.024604389
-75.482689 -5.6962886 -14.266945 0 0.070527039 -0.98642391 0.14830308 0.011398575
-75.457863 -5.8262944 -14.222415 0 0.13919087 0.9814133 -0.13211331 0
-75.474014 -5.9762859 -14.239248 0 0.99710774 -0.075955831 -0.0026086725 0
-75.511154 -6.1262832 -14.320752 0 0.72498828 -0.12673892 -0.67700016 0.033537876
-75.393257 -6.2263017 -14.086703 0 -0.04884579 0.64263076 0.76461738 0.036932092
-75.390305 -6.3663006 -14.077134 0 0.31589401 0.93184602 0.17853297 0.026534013
-75.981956 -5.5161405 -15.093228 0 0.59308577 -0.79305208 -0.13898849 0
-75.751587 -5.5961785 -14.642292 0 0.59572607 0.79430145 0.11914521 0
-75.530785 -5.6762195 -14.220846 0 0.12512554 -0.99042231 0.058370534 0.023139264
-75.511848 -5.8162274 -14.194385 0 0.040891729 -0.95843881 0.28235251 0.0027599046
-75.474991 -5.9462295 -14.112765 0 0.70032012 -0.10152157 0.70657283 0.01462478
-75.643387 -6.1461992 -14.436597 0 0.57208639 -0.71006459 -0.41051841 0.0025767446
-75.475273 -6.2262297 -14.112653 0 0.063728645 0.57219011 0.81764126 0.023523992
-75.444283 -6.3562336 -14.049104 0 0.24520582 -0.076790437 0.96642506 0
-76.14222 -5.5360518 -15.263055 0 0.45918024 -0.88832837 -0.0051230001 0.012322884
-75.818222 -5.5961156 -14.653259 0 0.013908843 0.99962032 -0.023784596 0.0015846164
-75.668915 -5.7061377 -14.354753 0 0.13309909 0.98873615 -0.068450965 0
-75.572006 -5.8161621 -14.185374 0 0.24322225 0.96997052 -0.00053444132 0.0017393539
-75.50988 -5.9361701 -14.058333 0 0.59647143 0.11784262 0.79393637 0.06639272
-75.560234 -6.0861583 -14.148172 0 0.93919903 0.07703612 0.33462024 0.030386772
-75.669472 -6.2661376 -14.354528 0 0.57132185 -0.67161435 -0.47172615 0.0074311304
-75.54483 -6.3761673 -14.132118 0 0.53730083 -0.079552673 -0.83963037 0.090303496
-75.928299 -5.6160388 -14.733184 0 0.44052926 -0.62740183 -0.64210659 0
-75.694534 -5.6960754 -14.271788 0 0.043740291 0.99887431 -0.018353365 0.0065026912
-75.65712 -5.8260918 -14.220836 0 0.079231761 -0.99553627 0.051283602 0.030813316
-75.561096 -5.9361024 -14.021741 0 0.20386863 -5.8214915e-05 0.97899824 0.032041069
-75.573578 -6.0761065 -14.059732 0 0.49603775 0.86759597 0.034982648 0.0003998543
-75.725586 -6.2660728 -14.336315 0 0.56992739 -0.66845751 -0.4778569 0.0038742579
-76.022919 -5.6159568 -14.765563 0 0.54604441 -0.78342402 -0.29678676 0.031368777
-75.789207 -5.6960077 -14.336739 0 0.3630904 -0.76354492 -0.53400797 0.069829099
-75.723694 -5.8160143 -14.199231 0 0.34962374 0.91976118 0.17833306 0.023976864
-75.626144 -5.9260406 -14.031116 0 0.16189574 0.090326525 0.98266518 0
-75.602608 -6.0660453 -13.98723 0 0.78755915 0.27957726 0.5491696 0
-75.60582 -6.1960464 -13.996689 0 0.70690554 -0.061851528 0.70459849 0.027275544
-75.733826 -6.3760176 -14.228495 0 0.14657465 0.96689385 0.2088833 0.052509561
-76.172379 -5.6458654 -14.905255 0 0.35164237 0.73546124 -0.57917565 0
-75.895882 -5.7059298 -14.406207 0 0.1362319 0.81159419 0.56811589 0
-75.737022 -5.7959623 -14.110796 0 0.42513728 0.79915351 0.42498469 0.11027606
-75.684189 -5.9359732 -14.012282 0 0.19475538 -0.64503384 0.73891938 0.057106253
-75.665855 -6.0659814 -13.98773 0 0.11695887 0.75462192 0.645652 0.01934064
-75.656418 -6.1959786 -13.958191 0 0.086115375 -0.98580337 0.14413808 0.0020447376
-75.666122 -6.3359814 -13.987622 0 0.72502011 -0.2688652 0.63407993 0.021040889
-76.280609 -5.6557865 -14.976315 0 0.41686493 -0.89295501 -0.16986753 0.010782059
-75.952957 -5.7058635 -14.387683 0 0.12137888 -0.96356118 -0.23836336 0.0024458251
-75.781799 -5.7959065 -14.086798 0 -0.046554096 0.60485774 0.79497153 0.01108478
-75.725868 -5.9259167 -13.97878 0 0.10885128 0.98069984 -0.16241705 0.012041597
-75.719841 -6.0659146 -13.959696 0 -0.062742949 0.84538442 0.53046066 0.0080609228
-75.703972 -6.1959233 -13.942759 0 0.54052645 -0.2835463 0.79210657 0.068035297
-75.704109 -6.3359232 -13.942702 0 0.39649498 -0.71815735 0.57187563 0.091188572
-76.038071 -5.7057924 -14.423146 0 0.42285848 -0.89794689 0.12199218 0.012320396
-75.888771 -5.7958283 -14.157225 0 0.28119126 -0.77945203 -0.55980885 0.059263252
-75.816833 -5.9258475 -14.032311 0 0.99798399 -0.030173562 0.05583398 0
-75.811119 -6.0658455 -14.014185 0 0.39487016 0.74879098 0.53234351 0
-75.739479 -6.1858644 -13.890232 0 0.49396032 -0.39666384 0.77373189 0.10413337
-75.742706 -6.3258657 -13.899686 0 0.60799956 -0.31077626 0.73058516 0.014746195
-76.145348 -5.7257147 -14.494514 0 0.23800294 -0.88085556 0.4092043 0.13782878
-75.920898 -5.7957683 -14.094231 0 0.12260891 0.91404641 0.38663438 0.046385095
-75.845886 -5.9257865 -13.959805 0 0.96759284 0.11821382 0.22313564 0
-75.852509 -6.0657883 -13.979727 0 0.1872118 0.95914078 -0.21213366 0.19095494
-75.818123 -6.1957912 -13.905712 0 0.45321059 0.29770449 0.84022152 0.081282929
-75.7967 -6.3257985 -13.871654 0 0.35277528 -0.42164728 0.83532226 0
-76.261574 -5.7256398 -14.593474 0 -0 1 -0 0
-75.990005 -5.7957063 -14.112804 0 0.2796613 -0.9342531 -0.22127047 0
-75.990158 -5.9457064 -14.112744 0 0.40850282 -0.90973181 0.074253328 0.035520874
-76.012466 -6.0856996 -14.148598 0 0.88504273 -0.23982801 0.39897612 0.054610346
-75.837631 -6.1857414 -13.836296 0 0.75106651 0.11797432 0.6496008 0.052308258
-75.856857 -6.3257337 -13.862641 0 0.24939561 -0.46647516 0.84864759 0
-76.339561 -5.7255678 -14.610221 0 0.36212158 -0.82004118 -0.44317082 0.049414594
-76.13121 -5.8256254 -14.256223 0 0.20921628 0.97204322 0.10658547 0.012859433
-76.078659 -5.9456367 -14.158671 0 0.13769329 0.92277062 0.35990965 0.010492319
-76.0289 -6.0756488 -14.069672 0 -0.0721085 0.99714071 -0.022597717 0.0050341832
-75.907356 -6.1856794 -13.856773 0 0.13139251 0.88872135 -0.43921548 0.014235059
-75.913368 -6.3256817 -13.874791 0 -0.08386983 -0.49439088 0.86518407 0
-76.453682 -5.7554903 -14.699347 0 -0.17258404 0.73615867 0.6544351 0.13563162
-76.138695 -5.8155713 -14.149713 0 0.33588481 -0.93341798 -0.1261442 0.012620852
-76.066742 -5.9355903 -14.024802 0 0.60023814 -0.76917928 -0.21926555 0.03553183
-76.073372 -6.0855923 -14.044724 0 0.23932606 0.93823546 0.24987462 0.045263015
-75.954918 -6.1856241 -13.841337 0 0.70710677 -0 0.70710677 0
-75.998474 -6.3356104 -13.910251 0 0.15275793 0.75215608 -0.64103538 0.10107123
-76.304543 -5.8554845 -14.336649 0 -0.14393088 0.59492791 0.79078746 0.042074695
-76.158348 -5.9455214 -14.080239 0 0.31223527 0.076512992 -0.94691867 0.0033664405
-76.111359 -6.0755343 -13.9998 0 0.73725802 -0.17950913 0.65132713 0.10027719
-76.011986 -6.1855583 -13.822817 0 0.11211515 0.264918 0.95773095 0.088539705
-76.037086 -6.3355522 -13.86723 0 0.36364159 0.56807035 -0.73828238 0.15649137
-76.299416 -5.8354402 -14.223718 0 0.24090363 0.96893209 -0.055999063 0.00075251132
-76.233948 -5.9454613 -14.118791 0 0.35064951 -0.51948005 -0.77922106 0
-76.137375 -6.0754867 -13.950354 0 0.93970025 -0.33326858 -0.076782465 0
-76.090378 -6.1954994 -13.869923 0 -0.024673408 -0.043700073 0.99873996 0.018422524
-76.181381 -6.3654728 -14.020165 0 0.94829512 0.14599515 -0.28181845 0
-76.431351 -5.8653564 -14.338604 0 -0.066198803 0.86590797 0.49580353 0.1434918
-76.368683 -5.9953785 -14.242231 0 0.47007704 0.54366004 -0.69531381 0.019650629
-76.231743 -6.0854182 -14.014351 0 0.64693737 -0.40818006 -0.64409709 0.10328913
-76.21312 -6.2254267 -13.988849 0 0.30271399 0.95297778 -0.014051634 0.042184144
-76.222778 -6.3754153 -13.985701 0 0.95266068 0.13803551 -0.27089471 0
-76.456741 -5.8653083 -14.287254 0 0.96166676 -0.26328331 0.07667426 0
-76.500923 -6.0152946 -14.358066 0 0.064316727 -0.97424018 0.21614636 0
-76.50106 -6.1552944 -14.35801 0 0.5797829 -0.36572507 -0.72807765 0
-76.229553 -6.2253757 -13.909915 0 0.53955013 0.8336482 -0.11796773 0.016414834
-76.404633 -6.4253197 -14.189525 0 0.6327368 -0.3796421 -0.67491925 0
-76.569901 -5.8752322 -14.376698 0 0.70588619 -0.53738517 -0.46145612 0
-76.504448 -6.0052533 -14.271763 0 0.012621435 0.99942601 -0.031438503 0.0063009583
-76.475601 -6.1452594 -14.218032 0 0.43600127 -0.16227263 -0.88519514 0.059651118
-76.367363 -6.2552934 -14.042871 0 -0.099905558 -0.31999668 0.94213641 0.052696418
-76.482368 -6.4352612 -14.237889 0 0.53640336 -0.56801879 -0.6242004 0.041004479
-76.720612 -5.9051404 -14.517032 0 0.49226657 0.33569577 -0.80310768 0.0072065336
-76.548927 -6.0151978 -14.246812 0 0.2061528 -0.54457271 -0.81298316 0
-76.543198 -6.1551957 -14.228686 0 0.1781349 -0.98394424 0.011035155 0.044958521
-76.496223 -6.2852087 -14.148243 0 0.30633068 -0.94863695 0.079053074 0
-76.659317 -6.0451202 -14.327687 0 0.6712749 -0.61138713 -0.41904157 0.13754004
-76.568588 -6.1551476 -14.177341 0 0.84481382 -0.53335786 -0.04265051 0.037243254
-76.571823 -6.2951484 -14.186794 0 0.53671294 0.73793387 -0.40913671 0
-76.750443 -6.1950512 -14.381163 0 0.70862257 -0.58143395 -0.39973578 0
-76.757057 -6.3350534 -14.401084 0 0.49348527 -0.022376129 -0.8694663 0.050570074
-76.826065 -6.2249918 -14.4197 0 0.47510445 0.30760315 -0.82441252 0.072893456
-73.460007 -6.187604 -12.568237 0 0.075367406 -0.95814174 0.27619573 0.10238196
-73.384483 -6.1976786 -12.562258 0 0.066584177 -0.95654088 0.28389439 0.1038314
-73.179482 -6.1778374 -12.449001 0 0.095592633 0.99279529 -0.072246671 0.036937099
-72.719955 -6.2583785 -12.62021 0 0.26136428 0.96441984 -0.039789062 0.059723493
-72.79422 -6.1883883 -12.816906 0 0.040243056 0.98969674 -0.13740756 0.054410882
-72.759125 -6.2984476 -12.870342 0 0.053491786 0.98903507 -0.13765299 0.056436684
-72.764305 -6.2985053 -13.015858 0 0.27071002 0.83348918 -0.48167628 0.037539158
-72.487404 -6.3387113 -12.842872 0 0.094505966 0.98794711 -0.12259334 0.025161134
-72.587708 -5.1790962 -13.965878 0 0.86834621 -0.35673547 0.34454995 0
-75.605064 -5.7272577 -16.782091 0 0.44750071 -0.14879076 0.88181889 0.042206317
-72.093063 -5.1596684 -14.12641 0 0.67327517 0.15557176 -0.72284019 0.040314905
-73.805466 -5.1288853 -16.325298 0 0.39488328 0.87277675 0.28692853 0.016462728
-71.247597 -5.7006335 -14.370266 0 0.8332215 -0.25162384 0.49236915 0.12498088
-71.311676 -5.7106276 -14.506124 0 0.8332215 -0.25162384 0.49236915 0.12498088
-71.003876 -6.2009206 -14.459837 0 0.042764779 0.97276801 -0.22780125 0.0029036368
-71.132011 -6.2608776 -14.660068 0 0.11006256 -0.97263235 0.2046276 0.00082672853
-71.206581 -6.3008595 -14.792522 0 0.058646772 0.99524856 0.077722341 0.012684959
-70.907784 -6.2310867 -14.617187 0 0.10772447 -0.97282708 0.2049461 0.00095715106
-71.028984 -5.8410411 -14.79762 0 0.40645769 0.90446687 0.12935187 0.0062175216
-71.029411 -6.2710414 -14.797447 0 0.21485992 -0.97573769 -0.042085078 0.0055070128
-70.964432 -5.1613307 -15.313822 0 0.70604408 0.056587391 0.70590347 0.027841318
-72.851837 -5.6501675 -17.045841 0 0.016069831 0.98770219 -0.15551862 0.00010380426
-72.848007 -5.6602087 -17.131195 0 0.016953202 0.99137294 -0.12996988 9.9344152e-06
-72.752831 -5.6603045 -17.12949 0 0.016953202 0.99137294 -0.12996988 9.9344152e-06
-70.862396 -5.7314944 -15.450982 0 0.044328928 -0.97075605 0.23593959 0.021589246
-70.851425 -5.731535 -15.517623 0 0.098415837 -0.95958561 0.26364711 0.021814922
-70.773201 -5.7316208 -15.5325 0 0.87578171 0.084897794 0.47518286 0.0031962201
-73.397209 -6.1276402 -12.504518 0 0.002361217 0.96225524 -0.27213839 0.10455228
-73.434578 -6.1576524 -12.619599 0 0.075367406 -0.95814174 0.27619573 0.10238196
-73.364388 -6.1877422 -12.662355 0 0.124277 0.94982415 0.28703532 0.02355979
-73.313759 -6.1578107 -12.700866 0 0.84801435 -0.47007954 0.24473834 0
-72.560081 -6.2486367 -12.840316 0 0.29674229 0.95478362 -0.018227009 0.057086032
-75.254883 -5.1470313 -15.445921 0 0.48872462 -0.8192324 -0.30001074 0.068179972
-74.629265 -5.1176176 -15.332492 0 0.36553538 0.78472668 0.5005877 0.015628455
-74.612823 -5.1176686 -15.411426 0 0.59338075 0.68863702 0.41674727 0
-71.329666 -5.7307167 -14.752618 0 0.26925799 0.94929421 -0.1622979 0.017254453
-71.130989 -5.7310605 -15.079942 0 0.26950485 0.96247846 -0.031660181 0.021896092
-71.099174 -5.7311206 -15.143886 0 0.15797968 -0.98693728 -0.03158107 0.028319612
-70.752571 -5.7115579 -15.339433 0 0.13311219 -0.98832136 0.074175522 0.00047031249
-70.795807 -5.7315717 -15.472592 0 0.044328928 -0.97075605 0.23593959 0.021589246
-70.792313 -5.7616124 -15.558886 0 0.82468688 -0.24048564 0.51191616 0.0010932502
-73.63839 -5.8197746 -17.978628 0 0.61603743 -0.037712228 0.78681374 0
-73.310036 -5.8000765 -17.906458 0 0.35989511 0.5230307 -0.77260244 0.18267402
-73.71624 -6.0473495 -12.580766 0 0.79250544 0.57654113 0.19883546 0.010632788
-76.026314 -6.0856194 -13.99691 0 0.029804874 0.99824917 0.051090088 0.010747454
-76.270546 -6.0853324 -13.907133 0 0.95727891 0.18854576 0.21924315 0.10184537
-71.175446 -5.8312016 -15.508138 0 0.252096 -0.94220507 0.22067435 0.0019576277
-71.129234 -6.2510319 -15.007924 0 0.061611246 0.99514914 0.076696031 0.012844875
-71.363373 -6.2307696 -14.951915 0 0.061611246 0.99514914 0.076696031 0.012844875
-71.376175 -6.2005906 -14.57032 0 0.15223448 0.97001976 -0.18943651 0.01455744
-73.668434 -6.2974324 -12.659349 0 0.2169881 0.33634079 0.91640109 0.061742157
-74.734406 -6.3264966 -12.995744 0 -0.018491926 0.88987488 0.45582983 0.012617057
-75.872551 -6.0857105 -13.847054 0 0.71714127 -0.42475042 0.55253553 0
-76.22303 -6.1253872 -13.922553 0 0.11887875 -0.19496675 0.97357881 0.18785153
-70.538864 -5.5518823 -15.588587 0 0.74824464 0.025683539 -0.6629256 0
-70.607773 -5.5418487 -15.671363 0 0.81071246 0.35258561 -0.46736348 0
-70.538902 -5.5918822 -15.588572 0 -0.21604431 0.065178432 0.97420567 0.0078844884
-70.663139 -5.5418258 -15.748015 0 0.74309897 0.20273581 -0.63773197 0.0030307428
-70.610893 -5.5718493 -15.680864 0 0.81101054 0.35161713 -0.467576 0
-70.535858 -5.6318812 -15.579045 0 -0.047847405 0.085062049 0.99522609 0
-70.726524 -5.5417886 -15.810508 0 0.69578975 0.2778706 -0.66231757 0
-70.665947 -5.5718265 -15.756567 0 0.72017437 0.21347092 -0.66013569 0
-70.60141 -5.6018605 -15.683941 0 0.79795265 -0.044024974 0.60111016 0
-70.529457 -5.6518931 -15.591634 0 0.10402082 0.13791543 0.98496646 0.0012384757
-70.795753 -5.5417547 -15.894229 0 0.67196178 -0.2405933 -0.70041579 0.056802455
-70.736122 -5.5717912 -15.839979 0 0.54950339 -0.40154579 0.7326712 0
-70.669067 -5.6018276 -15.766066 0 0.77426398 0.17329901 -0.60867298 0
-70.600876 -5.6318741 -15.714599 0 0.98471546 -0.17234768 -0.025133999 0
-70.523315 -5.6818914 -15.572598 0 -0.1630244 0.079509638 0.9834131 0.0074781831
-70.855415 -5.5417175 -15.948462 0 0.65911877 0.24930449 -0.70951366 0.11007093
-70.792175 -5.5517817 -15.947956 0 0.38434082 -0.71085513 -0.58903915 0.09829177
-70.723557 -5.6018014 -15.833546 0 0.5973978 0.28640464 -0.74905831 0
-70.660538 -5.6318374 -15.768832 0 0.257346 -0.31956977 -0.91194749 0.05736763
-70.595039 -5.6618724 -15.696512 0 0.86955053 -0.36620301 0.33132654 0
-70.513832 -5.7119026 -15.575673 0 0.28480005 0.022234675 -0.95832902 0.013134371
-70.908333 -5.5416927 -16.014351 0 0.59565371 -0.070858434 -0.80010986 0
-70.848755 -5.5517435 -15.992683 0 0.69297868 0.11289388 -0.71206427 0
-70.783211 -5.6017647 -15.887783 0 0.36787158 0.34460402 -0.86366576 0.075027317
-70.720253 -5.6318145 -15.855645 0 0.64089257 0.22972932 -0.73244864 0
-70.645462 -5.6818323 -15.722204 0 0.17254728 -0.64809436 0.74175543 0.070032783
-70.594559 -5.6819005 -15.75975 0 0.21781337 0.59508705 -0.7735818 0.11429715
-70.500969 -5.7619123 -15.568275 0 -0.16007254 -0.15822533 0.97434163 0.011212391
-70.964905 -5.5416546 -16.059071 0 0.49639797 0.50542343 -0.70578766 0
-70.914848 -5.5716944 -16.034313 0 0.50751376 0.24142626 -0.82712942 0.073667943
-70.851822 -5.6017303 -15.969601 0 0.8432759 0.080809787 0.5313713 0
-70.789421 -5.6317663 -15.906795 0 0.32804781 -0.79899246 0.50397986 0
-70.717194 -5.6618137 -15.846119 0 -0.031825859 0.19742791 0.9798007 0.022717906
-70.660088 -5.6818652 -15.832062 0 -0.095374882 -0.51189637 0.85373634 0.091846831
-70.588432 -5.7318988 -15.740706 0 0.27631408 -0.22923838 -0.93332756 0
-70.507484 -5.7919145 -15.588242 0 -0.086292185 -0.067476593 0.99398214 0
-71.028206 -5.5416045 -16.092152 0 0.53334153 0.52968699 -0.65952915 0
-70.971413 -5.5716562 -16.079033 0 0.48176023 0.53416854 -0.69467324 0.0010400824
-70.908394 -5.6016927 -16.014328 0 0.76389951 -0.076954573 0.64073038 0
-70.842346 -5.631741 -15.972674 0 0.82179755 0 -0.56977957 0
-70.782715 -5.6617785 -15.918428 0 -0.024460666 -0.36938336 0.92895514 0
-70.70768 -5.7118106 -15.816615 0 0.31146702 0.23782961 0.92001373 0.0053170235
-70.638527 -5.7318587 -15.765456 0 0.14606233 0.55395812 -0.8196317 0.072165363
-70.585068 -5.7618976 -15.73023 0 0.29364863 -0.45584542 -0.84022343 0.046688318
-70.498001 -5.8219252 -15.591317 0 0.8933779 0.12514816 -0.43152502 0
-71.093788 -5.5415835 -16.197035 0 0.63065916 -0.1407259 -0.76319414 0.12100266
-71.034157 -5.5716205 -16.142786 0 0.11724923 -0.82976377 0.5456599 0
-70.968109 -5.6016698 -16.101137 0 0.85226488 0.24467945 -0.46235976 0
-70.90847 -5.6217065 -16.04689 0 0.67817414 0.15444726 -0.71848869 0.10634366
-70.839287 -5.6617403 -15.963152 0 0.31978729 -0.058676586 -0.94567072 0
-70.779709 -5.6817913 -15.941483 0 0.27076772 0.41874236 -0.86679852 0.060282052
-70.704666 -5.7318239 -15.839667 0 0.082574092 0.23251717 0.96908063 0.027836176
-70.638611 -5.7618723 -15.798019 0 0.46378267 -0.21196453 -0.860219 0.087523408
-70.560471 -5.8019032 -15.686693 0 0.75103885 -0.14597708 -0.64391875 0.028331442
-70.482048 -5.8619342 -15.574409 0 0.9179039 -0.085340835 -0.38751706 0
-71.14978 -5.5215597 -16.272436 0 0.62697309 0.47551873 -0.6170792 0.10780632
-71.093246 -5.5515971 -16.227701 0 -0.15520436 0.66198039 0.73327595 0.09095756
-71.027763 -5.6016326 -16.155371 0 0.71947747 0.37827641 -0.58245969 0
-70.967575 -5.6216836 -16.131798 0 0.64081413 0.15256314 -0.75238407 0
-70.905426 -5.6617055 -16.037365 0 0.91303438 0.13068713 -0.38637939 0
-70.827034 -5.7017508 -15.957661 0 0.61376238 0.14273544 -0.77648079 0
-70.763748 -5.7118006 -15.924582 0 0.78553772 0.019871294 -0.61849457 0
-70.684975 -5.7718329 -15.814508 0 -0.19494374 0.19090116 0.96205699 0.04644094
-70.620125 -5.8018665 -15.740929 0 0.50420827 -0.25897655 -0.82383555 0.073415734
-70.535583 -5.8619094 -15.642195 0 0.83646357 -0.21169119 -0.50548553 0
-71.203781 -5.5414925 -16.244392 0 0.48265296 0.87273079 -0.073397323 0.15568362
-71.137733 -5.5715413 -16.202745 0 0.37962157 -0.071935363 -0.92234093 0.015430655
-71.084335 -5.6015944 -16.200098 0 0.38444403 -0.10761204 -0.91685468 0
-71.024139 -5.6216455 -16.176523 0 0.89411134 0.13251427 -0.42779067 0
-70.958656 -5.6616807 -16.104198 0 0.92494917 0.13462763 -0.35544971 0
-70.886688 -5.7017136 -16.011898 0 0.74763918 0.011048551 -0.66401321 0.063359082
-70.829842 -5.7317514 -15.966212 0 0.53687292 0.18423523 -0.8233012 0
-70.754837 -5.7617974 -15.896978 0 0.49575305 0.0050687669 -0.86844879 0.02664227
-70.681923 -5.8018317 -15.804987 0 0.66963488 -0.085512079 -0.73775119 0
-70.610657 -5.8418775 -15.743999 0 0.49247882 -0.016901698 -0.87016034 0.027970295
-70.51403 -5.9119024 -15.575593 0 0.92594218 0.075820893 -0.36997607 0.10661426
-71.272446 -5.5414724 -16.358789 0 0.690974 0.10977175 -0.71449649 0
-71.206383 -5.5515213 -16.317144 0 0.19188933 -0.9028278 0.38481215 0.04852682
-71.149849 -5.5915594 -16.272408 0 0.82490247 -0.06106266 -0.56196731 0
-71.084366 -5.6315942 -16.200085 0 0.24157031 -0.040645856 -0.96953166 0.015063005
-71.02108 -5.6516442 -16.167002 0 0.36593211 -0.065457158 -0.92833668 0.018576253
-70.955597 -5.6816797 -16.094677 0 0.015852572 0.21484901 0.97651857 0
-70.889503 -5.7317147 -16.020449 0 0.42742884 -0.22189924 -0.87639332 0.073640361
-70.823448 -5.7617636 -15.978796 0 0.67349303 0.048162732 -0.7376228 0
-70.745369 -5.8018084 -15.900051 0 0.19757266 -0.85614836 0.4774673 0
-70.663841 -5.8418384 -15.778258 0 0.65923429 0.20506336 -0.72343564 0
-70.598099 -5.8818874 -15.737558 0 0.28476855 -0.14880788 -0.94697577 0.019513492
-70.49807 -5.9519114 -15.55869 0 0.66128844 0.034249771 -0.7493493 0.03377315
-71.332108 -5.5414357 -16.413023 0 0.51662689 -0.34602505 -0.78317511 0.023013296
-71.266609 -5.5714703 -16.340704 0 0.35245574 0.43537733 -0.82838494 0.083323918
-71.209816 -5.5915222 -16.327595 0 0.30582225 -0.14756715 -0.94058317 0.065321937
-71.131363 -5.6315532 -16.215321 0 0.44092041 0.44299388 -0.78060597 0
-71.078224 -5.6615925 -16.181046 0 0.48065984 -0.045278419 -0.87573731 0.03248376
-71.015244 -5.6816425 -16.148916 0 0.30686268 -0.21540929 -0.92705673 0.069716148
-70.946114 -5.7116909 -16.097752 0 0.22525771 -0.048054975 0.97311336 0
-70.874153 -5.7617235 -16.005449 0 -0.14824797 0.3588922 0.92153078 0.029982192
-70.798843 -5.8017693 -15.935261 0 0.22312939 -0.90158731 0.37061238 0.0503061
-70.73896 -5.8218203 -15.912641 0 0.61637592 0.27437425 -0.73810536 0
-70.660828 -5.8718514 -15.801315 0 0.64813399 -0.017391004 -0.76132774 0.034321371
-70.570366 -5.9318786 -15.651933 0 0.76737529 -0.10809223 -0.63202161 0
-70.48864 -5.9719367 -15.594343 0 0.90572119 0.11032362 -0.40926498 0
-71.38868 -5.5413976 -16.45775 0 0.72989804 0.25250527 -0.63520861 0
-71.319542 -5.5714455 -16.406588 0 0.70325822 0.013138881 -0.71081305 0
-71.263 -5.6014833 -16.361851 0 0.31601933 0.2306087 -0.92029959 0
-71.19442 -5.6315174 -16.280018 0 0.51356733 0.052031949 -0.85647023 0.068625651
-71.134544 -5.6615686 -16.257395 0 0.77306443 0.50969303 -0.37760359 0
-71.073952 -5.6816068 -16.203461 0 0.2141484 0.11358147 0.97017509 0
-71.002678 -5.7116528 -16.142475 0 0.31283167 0.48175052 0.81856763 0
-70.936638 -5.7517018 -16.100822 0 0.94976586 -0.071680441 0.30464187 0
-70.839951 -5.8217125 -15.899842 0 0.71333218 -0.048682392 0.69913316 0
-70.79554 -5.8317828 -15.957358 0 0.33640987 -0.06369891 0.93955886 0
-70.714066 -5.8718266 -15.868145 0 0.89269364 -0.0065071015 -0.4506171 0
-70.632843 -5.9118567 -15.74731 0 0.71873313 -0.23963976 -0.65268338 0
-70.538734 -5.9818964 -15.619085 0 0.097289205 0.94751227 -0.3045575 0
-70.491234 -5.9819655 -15.667095 0 0.75011843 0.33057567 0.5727495 0.12939271
