# .PCD v0.7 - Point Cloud Data file format
VERSION 0.7
FIELDS x y z
SIZE 4 4 4
TYPE F F F
COUNT 1 1 1
WIDTH 1524
HEIGHT 1
VIEWPOINT 0 0 0 1 0 0 0
POINTS 1524
DATA ascii
-4.0012026 -0.38250738 5.7880435
-5.5608692 3.5854959 3.637022
-5.6400781 4.0234275 5.4716272
-2.1458774 -1.5299418 6.688849
4.1882219 2.9110568 -0.24959517
4.2149372 2.9629419 -0.33494306
0.046889901 -4.8233352 0.96984971
4.2533836 3.0139482 -0.412956
4.3016601 3.0631845 -0.48546815
0.62810922 1.6787443 2.848561
-1.4171356 2.6083395 7.1086044
1.3097324 3.6016974 1.1133182
-0.74202454 3.1724107 5.5912108
4.0097885 4.2336135 -1.0072017
-3.5005045 2.3755512 6.7535958
-0.47798806 3.0914571 0.9449414
2.1134555 3.3829503 1.2663475
-0.9617157 2.7408192 1.0266367
-2.262892 2.4580641 7.2266259
-0.12875557 1.8399197 4.5373373
2.3250623 -4.2542524 1.0038867
2.407053 -4.2068019 0.95359802
2.4802523 -4.1596031 0.89810336
2.5426948 -4.1111503 0.83489865
2.6080446 -4.0601206 0.77452564
2.6545215 -4.0116935 0.69958889
2.6906886 -3.9597168 0.62055147
2.7170906 -3.9072146 0.53551781
2.7345879 -3.8544874 0.44409192
2.7351158 -3.8005793 0.33889985
2.7296576 -3.7457678 0.23345137
2.7449522 -3.6928229 0.14190888
2.7537229 -3.6393523 0.043777585
2.7710137 -3.5867515 -0.048053265
2.7917838 -3.5349312 -0.13837206
2.8278735 -3.4826715 -0.21791458
2.9105704 -3.4354846 -0.26770639
3.0496869 -3.4000382 -0.27237117
0.12703189 3.9674668 0.22310533
0.22129497 4.0437598 0.17387387
0.68460304 4.3859181 -0.083126709
1.3847895 4.7931743 -0.52267683
2.1727257 4.9499002 -1.149044
2.6237292 4.9532738 -1.5441072
3.1936731 4.8234677 -2.0983815
3.6020489 4.6470137 -2.5295451
1.9830761 3.643811 1.1078433
4.7268486 -2.9871266 -0.22604632
4.8266392 -2.9411061 -0.26417994
4.9078617 -2.8952634 -0.31358862
5.0126195 -2.853236 -0.34669161
5.1006598 -2.8040555 -0.39384127
5.1796665 -2.7558384 -0.44653201
5.2703595 -2.7098861 -0.49035478
5.3507118 -2.6624236 -0.54104376
5.4138546 -2.6151209 -0.60269976
5.4746466 -2.565969 -0.66666198
5.5270581 -2.5166771 -0.73691726
5.5656948 -2.4655409 -0.81491661
5.5969763 -2.4108286 -0.89581347
5.6398373 -2.3614383 -0.97183442
5.7194138 -2.3133619 -1.0233591
5.8010058 -2.2664797 -1.0737939
5.8615952 -2.2178299 -1.1376178
5.9142561 -2.1689091 -1.2069271
5.9680634 -2.1202819 -1.2761991
6.0218239 -2.0687416 -1.342978
6.0544224 -2.0177431 -1.4259095
6.0861673 -1.9664584 -1.5094404
6.113945 -1.9126405 -1.5952575
6.1161251 -1.8649404 -1.7124677
3.9329216 3.4688363 -0.17295969
5.1428819 3.2320564 -2.6351621
2.5771146 2.2982295 1.7128844
3.4474018 2.9755366 0.82795012
3.3961096 2.9248445 0.8966639
3.3347888 2.8758035 0.95982134
3.2762427 2.8287375 1.0266203
3.2245328 2.777828 1.0949835
3.1722879 2.7261727 1.1618618
3.1126585 2.6782532 1.2278003
3.0451231 2.633368 1.2910436
-3.8851409 0.62320483 3.23158
-3.3883872 -0.55688202 -0.8005507
-2.5399599 -1.3470944 6.8094854
2.6734838 2.5730186 1.550616
2.7523828 2.6160178 1.4937209
2.8050904 2.6683354 1.4282467
2.8741052 2.71398 1.3669401
-2.593051 -1.4367155 6.6749282
-2.6835792 -1.4274237 6.6321507
0.12686664 -4.7496786 0.43029451
-4.1839304 3.2115355 4.3783097
-5.4751196 3.4144061 3.6412077
4.3104458 3.4616303 -4.5020247
0.078978777 0.66976404 7.8429623
4.1953053 4.2310104 -3.0432212
-1.9802419 -3.0134163 5.1858525
2.016989 4.3566833 -4.5227737
-3.1598337 0.23331158 -0.92495382
4.7893772 3.3694918 -3.9470782
4.8505096 3.3274944 -3.8632188
4.9124794 3.2859242 -3.7794833
5.6914673 -0.0373483 -5.3769817
5.695734 0.018878847 -5.4780188
5.76091 0.066124231 -5.5346422
5.8340559 0.1149306 -5.5881753
5.9106345 0.16048896 -5.6422997
5.9823713 0.20910582 -5.6979818
6.0511446 0.25649887 -5.758944
6.1017046 0.30675888 -5.8296547
6.1434617 0.35796589 -5.90626
6.1697831 0.40979701 -5.9931121
6.18996 0.46227437 -6.0835266
6.2074466 0.50179064 -6.1675429
2.1070061 3.6303709 -5.4845347
3.5787773 4.7060823 -2.112397
3.4399886 4.7546134 -1.9702951
1.894125 3.1092796 -6.068048
2.2919297 4.7432241 -0.40591192
-3.4823534 0.41100162 -2.4338136
3.3290763 4.2499909 -4.194736
4.1565723 3.0911167 -0.28744686
2.7751572 4.0771518 -4.8983207
4.3510656 3.1126206 -0.55638957
4.3841543 3.1666393 -0.63791394
-2.9486279 2.6418171 6.7556901
2.5156393 4.8169146 -0.75898486
-3.7792208 3.0906746 4.6137686
-4.0829835 3.3914816 5.0004883
0.16079712 -4.7679982 1.2387657
0.31403494 -4.6967697 1.2366345
4.4090133 3.217788 -0.72394955
4.4275198 3.2714441 -0.81332612
0.65530336 -4.5884318 1.1378846
0.80000156 -4.5318632 1.1224179
3.4292517 4.3241668 -0.45962107
0.17107385 2.125819 2.4666946
3.7122085 3.9924335 -0.2786411
-0.57833803 2.9942269 0.99093163
-0.99197024 2.2896848 3.93571
-1.0532831 2.6597917 1.0731397
4.940237 1.0315115 0.34382963
3.7791302 4.0314951 -0.50672281
3.1426613 4.8462558 -1.8580241
2.3247166 -4.1351981 1.0863272
2.4175336 -4.0889215 1.0433731
2.4910924 -4.0424528 0.98845041
2.5576019 -3.9914036 0.928204
2.6130741 -3.9437313 0.86065012
2.6620605 -3.8932345 0.7892347
2.702616 -3.8425591 0.71188474
2.7324381 -3.790627 0.62722588
2.7457979 -3.7372274 0.53491986
2.7470274 -3.6830382 0.43619275
2.7392201 -3.628195 0.32452333
2.7355235 -3.5738819 0.21916199
2.7551618 -3.5212631 0.12792873
2.780715 -3.4690902 0.042868137
2.8041699 -3.4176152 -0.046955585
2.8314054 -3.3659294 -0.13141143
2.9103708 -3.3162642 -0.184847
3.0399699 -3.2798355 -0.19687641
0.86810648 4.5111318 -0.18973249
0.77575374 4.4499488 -0.13553654
1.2999156 4.7560906 -0.46382961
2.0935216 4.9359665 -1.0858555
2.6976628 4.947968 -1.6109937
3.124367 4.8472319 -2.0272479
3.6676979 4.6092525 -2.6026547
3.040884 3.9942687 0.31759894
-1.5746036 3.3126323 5.9995809
4.7257471 -2.8692076 -0.14468837
4.8212662 -2.8285089 -0.18138885
4.900661 -2.7795439 -0.23374319
-3.1239371 6.5041981 3.9690475
5.0975056 -2.6858602 -0.31499767
5.1797323 -2.6394629 -0.36365819
5.2538767 -2.593549 -0.41662216
5.3310246 -2.5443001 -0.47119856
5.4025331 -2.4966021 -0.5273807
5.4661622 -2.4486334 -0.5892117
5.5173488 -2.3988562 -0.6595943
5.5616541 -2.3471014 -0.73396826
5.609376 -2.2962799 -0.80594921
5.6722617 -2.2481835 -0.86869574
5.7361956 -2.20064 -0.93037176
5.8037672 -2.1510386 -0.98957562
5.8574781 -2.1020877 -1.0580082
5.9072962 -2.0519991 -1.1288836
5.9625478 -2.0014379 -1.1958942
6.0084224 -1.9510831 -1.2702188
6.0495505 -1.9001353 -1.347466
6.0862675 -1.8489084 -1.4264615
6.1093402 -1.7961257 -1.5157297
6.1276217 -1.7439741 -1.6071634
6.1501961 -1.6921693 -1.6976879
3.9528086 3.5233135 -0.26393318
-4.2904549 -0.62625962 5.0076351
2.6502185 2.3468037 1.6587751
2.729594 2.3908792 1.6025819
2.7996807 2.4370754 1.5428475
2.8619666 2.4869714 1.4817128
2.9210153 2.5344701 1.4151225
-2.4469676 1.4803982 7.9166908
0.20867944 1.3436747 7.2871132
0.24837208 0.81557715 7.6454573
2.4126208 2.2054558 1.8084798
3.5148897 3.0792644 0.66664207
4.1500297 3.5023544 -4.617249
-6.1102085 4.1064172 3.5254569
-3.9398131 2.6376424 4.1819067
2.4512682 3.3660126 -5.7493157
2.347249 3.3600636 -5.7744656
2.9191628 2.7697978 1.2994506
2.9781585 2.8173332 1.2323821
3.0466123 2.8619971 1.1699854
3.1077976 2.9111924 1.1071243
3.1761672 2.956682 1.045294
3.2884068 3.0555115 0.91325545
3.3595262 3.1622608 0.75645351
0.0059378147 0.62202287 7.8942676
-1.3462542 2.3673809 1.9683073
2.1160514 2.7124963 1.6776445
2.0121663 2.6684411 1.713424
2.3959424 3.1388674 1.3313618
2.4668605 3.1849756 1.2724217
2.8461499 3.6882846 -5.3287897
2.7429209 3.6843553 -5.3551774
5.6490345 0.14065912 -5.4243479
5.6716962 0.19515064 -5.5103941
5.7371287 0.2421729 -5.5677013
5.8257151 0.28690949 -5.613265
5.8965306 0.33517495 -5.6701579
5.9684596 0.3833037 -5.7272511
6.0295777 0.43235213 -5.7913814
6.0799332 0.4823176 -5.8626289
6.1192026 0.53323734 -5.9410124
6.1517458 0.58582002 -6.0246449
6.1755896 0.63629365 -6.111465
6.1890717 0.69115579 -6.2084918
2.5367608 3.5915658 0.97540188
4.4476709 3.3265753 -0.90333855
3.1387491 4.5953135 -0.65138495
-2.40853 6.5692053 3.8906112
1.8609438 4.4357486 -4.4322505
3.6261396 4.3184748 -3.6820369
4.4862213 3.3775356 -0.98104227
-2.532865 7.0721207 3.5940652
-3.0832658 8.419879 2.905087
4.5171814 3.4378166 -1.07148
-0.51419449 2.6001203 1.5313004
-1.3282681 2.3394873 2.1351931
-1.8307073 2.1395783 2.4900985
-3.4865267 3.1607988 5.5263872
4.7071123 1.1044571 0.3825233
2.4409823 4.8176174 -0.69285148
-4.1465654 3.4404597 5.0766544
-3.4211683 5.470057 3.0559797
-3.0532296 4.3760362 3.2395573
0.60075736 -4.6270375 1.4981329
0.71305931 -4.577826 1.4695755
0.78777277 -4.539402 1.4118454
0.88922095 -4.4877539 1.3747903
0.98187298 -4.4398122 1.3301251
1.1130502 -4.392725 1.3049834
1.2727511 -4.352984 1.3089166
1.4171464 -4.318789 1.300354
-3.6406968 3.1432993 5.654706
-1.1436605 2.5936747 1.1243382
2.7499685 4.2037034 0.28146493
2.8569574 3.6796222 0.72826338
3.2129924 4.8264275 -1.9273751
1.0613849 2.91149 1.6184366
2.3238623 -4.0157027 1.167985
2.414264 -3.9681306 1.123093
2.4861376 -3.9207673 1.0674698
2.5501971 -3.873528 1.0069693
2.6090724 -3.8239129 0.94213498
2.6571472 -3.773458 0.87072402
2.6981807 -3.7233145 0.79414219
2.7325954 -3.6724601 0.71148789
2.7577624 -3.6200128 0.62596625
2.7591631 -3.5661023 0.52696526
2.7441273 -3.5103478 0.40828311
2.7453189 -3.4565966 0.30991268
2.7538207 -3.4029047 0.2120446
2.7726879 -3.3501573 0.12038553
2.7945004 -3.2985947 0.030211687
2.8305435 -3.2468119 -0.048470855
2.9125881 -3.1996374 -0.098492265
3.0493493 -3.1593657 -0.11026335
1.5481249 4.8518496 -0.64180243
1.4664103 4.8241448 -0.58164132
2.2476323 4.9519472 -1.2145981
2.8432465 4.9293318 -1.7467389
3.0549557 4.8717103 -1.955966
3.7972074 4.5205517 -2.7551007
3.1986041 4.0306087 0.19075799
-1.2841918 2.1946733 3.3841152
2.130893 4.7751079 -0.43830672
4.7272325 -2.7540128 -0.059043646
4.8175592 -2.7080264 -0.10351133
4.8666186 -2.6578367 -0.17502141
4.9573407 -2.6099646 -0.22107244
5.0556068 -2.5643184 -0.26063347
5.1487331 -2.520282 -0.3021524
5.2233067 -2.4735286 -0.35382318
5.2950516 -2.4254839 -0.4098475
5.3657193 -2.377466 -0.46726084
5.4325752 -2.3284202 -0.52880597
5.4929562 -2.2790091 -0.59313035
5.5459304 -2.2297649 -0.66123962
5.6064849 -2.1810706 -0.72517037
5.6722279 -2.1313272 -0.78589177
5.7350602 -2.0831656 -0.8483057
5.7879586 -2.0337071 -0.91712332
5.8347549 -1.9826007 -0.99008083
5.8763213 -1.9317145 -1.0663548
5.9316716 -1.8820934 -1.1332107
5.9800644 -1.8312511 -1.2058904
6.0259657 -1.78118 -1.2789829
6.0567055 -1.7293403 -1.3626757
6.0839853 -1.6778102 -1.4475925
6.1049733 -1.6251523 -1.5377584
6.1334357 -1.5735002 -1.6220775
6.1575608 -1.5205547 -1.7116749
3.9991472 3.5776119 -0.33665431
-4.5434437 2.7411518 5.790206
-6.2904634 3.3211923 4.5403247
-3.9254689 -2.3584433 3.7026997
2.7277327 3.9854372 -5.0394444
0.036328554 1.0839136 7.6842723
-0.22256804 1.9387567 7.2593346
-8.6538086 5.1213565 4.6790442
1.3732718 4.3511868 0.23646969
2.3172479 2.1614029 1.8575488
3.5438282 3.1322029 0.58294654
3.5792046 3.1804793 0.50169492
3.5999479 3.2369726 0.41493046
3.6287746 3.2902098 0.33029258
3.6885767 3.3385813 0.26543212
3.7386656 3.3887804 0.19520819
2.5129192 1.4964542 1.951398
-3.2890525 8.6944523 2.6014881
2.0647223 2.763067 -6.2591195
0.24925518 0.9104501 3.6095576
0.27493036 0.96107554 3.524055
3.2293956 3.0087707 0.97916365
3.3289776 3.1076224 0.83777988
0.28760886 0.86730403 7.5694461
-1.1581769 -1.9021515 7.092742
2.2090416 2.7572668 1.6346529
2.2513938 3.0408289 1.4409866
2.3141234 3.0943484 1.3843961
-3.3061349 1.3732102 2.0570269
-0.00017619133 3.7828586 -3.9334071
-3.2294736 -1.1052481 6.4554734
5.6221428 0.26397699 -5.3634615
5.6098542 0.31567815 -5.4668608
5.6362424 0.37100685 -5.5515032
5.7108941 0.41785818 -5.5981984
5.7925749 0.46400911 -5.6515193
5.8738499 0.51098418 -5.7025661
5.9362402 0.56033462 -5.7653985
5.9967728 0.60935724 -5.8310356
6.0468588 0.65900302 -5.9027572
6.0874505 0.71029496 -5.9807482
6.1210823 0.76360631 -6.0637465
6.1459894 0.81396371 -6.1510563
4.4266205 4.0962148 -2.9295611
1.0025847 3.9854794 0.59559906
-2.2723274 5.3931375 4.4325767
-3.2749896 5.2867756 4.3648753
-1.86607 2.2147951 3.127537
-3.5241938 -1.3121278 5.9037185
-3.5719888 -2.8977933 3.9451594
-6.5501671 3.6654882 5.2773085
0.66211534 -0.94678932 7.1145878
1.7904892 4.372324 0.25558609
1.2657939 4.0587993 0.58352757
0.72115713 3.670522 0.89823705
0.054764137 3.0922093 1.2394969
-0.60827184 2.5268536 1.5824212
-1.9318891 2.213026 2.2250791
-2.0166488 2.1683764 2.2810752
2.2003827 3.4349277 1.2088771
2.0158625 4.0385575 0.67257166
3.6955791 -2.206686 0.84392715
-3.8350296 3.1706755 4.6908517
-4.213541 3.4792445 5.1516285
-4.1598744 -0.55533904 1.4922121
-4.1215649 -0.50222951 1.4147691
-3.9729176 -0.5657022 3.4596617
-4.1076159 -1.8719406 0.86951745
-3.0213301 -0.14393494 -1.6535871
1.1777583 -4.3483667 1.5419115
1.2759081 -4.2913671 1.5025746
1.3876966 -4.2430983 1.4709367
1.4940947 -4.2029805 1.4224546
1.5974176 -4.1653175 1.3961825
-0.056455955 2.8635192 1.4321196
1.0872906 2.5179055 1.8191144
3.2823207 4.8026652 -1.9985054
2.0677624 3.6842775 1.0487667
-5.0995703 4.116385 4.8760495
2.3133311 -3.8961239 1.2442868
2.3964946 -3.8499703 1.1962157
2.4691637 -3.8030012 1.1409187
2.5390513 -3.7540541 1.0828898
2.5994668 -3.7052288 1.0194349
2.6469598 -3.6563356 0.94623947
2.6965554 -3.6049399 0.87724787
2.7334425 -3.5543926 0.79550248
2.7499115 -3.5013838 0.70353448
2.7542005 -3.4474545 0.6047079
2.7497272 -3.393018 0.49964857
2.7537668 -3.3389885 0.40085781
2.7587035 -3.2851715 0.29627216
2.7752056 -3.2323892 0.20486069
2.7955859 -3.1806593 0.11464095
2.8456788 -3.1312263 0.044825554
2.9336152 -3.0819402 -0.0021954775
3.0509741 -3.043721 -0.023565412
1.9427495 4.9211841 -0.95498079
2.0167708 4.9303856 -1.0210081
2.7698631 4.9370375 -1.6797886
2.9842734 4.8903484 -1.8868852
3.861052 4.4731069 -2.8320065
0.64529896 3.8360839 0.65718699
-1.3474156 2.2453496 3.4594877
5.4329019 1.0773463 -5.6917372
5.5241718 1.1418866 -5.7462621
4.7453718 -2.6370831 0.035177708
4.8198104 -2.5926952 -0.018034697
4.8618417 -2.5431936 -0.09314847
4.9193387 -2.4925871 -0.15993905
5.007709 -2.4451962 -0.20677686
5.0995531 -2.3992822 -0.24975634
5.1894207 -2.3525751 -0.29502916
5.2627892 -2.3056259 -0.34916687
5.3305483 -2.2564771 -0.40946341
5.3940606 -2.2084045 -0.47042632
5.462594 -2.1597915 -0.52962089
5.5240641 -2.1109617 -0.59279418
5.5855875 -2.0622981 -0.6558485
5.6519108 -2.0129247 -0.7166481
5.7149048 -1.9644307 -0.7788825
5.7662315 -1.9144037 -0.8488903
5.8057127 -1.8633733 -0.92638111
5.8394952 -1.8119006 -1.0071359
5.8832622 -1.7609832 -1.0822983
5.9301224 -1.710013 -1.1555047
5.9791608 -1.6598246 -1.2271585
6.0108538 -1.6079714 -1.3103945
6.0397072 -1.5565686 -1.3946137
6.0646729 -1.504913 -1.4810636
6.0918798 -1.4531357 -1.5657434
6.1240926 -1.4014432 -1.6490939
6.1449485 -1.3490969 -1.7392058
4.0356374 3.6276319 -0.41595626
4.0640459 3.6800404 -0.5003022
4.094645 3.7337096 -0.58275902
4.1262212 3.7883861 -0.6644491
4.1625004 3.8379052 -0.74395728
-1.8584144 2.2974207 2.0027287
1.7891548 1.7177197 2.1648884
3.8826323 3.3659668 -0.0020798445
1.4656249 4.5020199 0.032431185
2.235436 2.1148307 1.90809
2.1452639 2.072289 1.9565029
2.0514011 2.0263464 1.9974406
1.8362439 1.9454788 2.0784717
1.948489 1.9842738 2.0385201
3.7797701 3.4411752 0.11960399
3.8092279 3.4942427 0.036239505
-1.6950024 2.3479528 1.8807273
3.8558109 3.6011057 -0.1381427
3.8797479 3.6514728 -0.22511387
0.24824202 0.85946703 3.7074945
2.3685842 4.7509184 -0.47019577
2.7477717 4.7658372 -0.7972002
0.35114884 0.96960437 7.4074197
2.5989053 4.7723198 -0.66387016
2.2915611 2.8040462 1.5855649
2.1798482 2.9927232 1.496953
-2.7444673 -1.2166719 6.7951412
-3.2697875 1.4479675 1.975854
2.9512699 3.8766842 -5.0571189
4.0702004 3.5228748 -4.6749411
5.6062822 0.38688672 -5.2969866
5.5605292 0.4456735 -5.4230833
5.5609493 0.49691355 -5.5183721
5.6102133 0.54704809 -5.5853081
5.6883216 0.59257609 -5.6355724
5.7687087 0.63920289 -5.6851439
5.8489819 0.68575597 -5.7388239
5.9095287 0.73453271 -5.8034372
5.9680128 0.78266728 -5.870358
6.0108347 0.83496892 -5.9452806
6.0486417 0.88518596 -6.0248137
6.0774546 0.93696874 -6.1096129
-2.2454565 2.9905293 6.463757
2.5903206 4.8144655 -0.82533121
-3.5599508 8.2109737 2.4900928
4.1698155 4.3637609 -2.0301061
2.3813009 4.4658952 -4.3111057
2.675091 4.4674554 -4.2147198
1.1689827 -4.1621022 2.782268
-0.87320352 2.6219316 1.2809155
-5.8652744 4.2094312 3.7387404
2.7614493 4.6637144 -0.47786009
2.2111745 4.560379 -0.037028253
1.7022865 4.3195214 0.31089208
1.1745832 3.9955084 0.6368565
0.62734598 3.594461 0.94840479
-0.041935712 3.0053394 1.2878703
-0.69267237 2.4813228 1.6374263
-1.6801695 2.3160257 2.0481749
-1.9128487 2.1083164 2.5482063
-1.7421932 3.3241222 5.9616804
-4.5692811 3.7260337 5.1893387
-4.4376187 3.6421669 5.0392723
-4.3108425 3.5436831 4.8857265
-4.1936693 -2.0386739 1.1168447
-4.1512814 -1.9244359 0.94492328
-3.987874 -0.37738886 3.1578097
-4.0596333 -1.8213181 0.79851353
-3.0590515 -0.19376618 -1.5879481
-3.4980145 5.9706702 3.0770707
-3.103756 4.2621799 3.4087238
-3.9471064 -1.531401 0.093672276
-3.2966189 -0.87659371 -0.82301056
1.5607219 -4.0991931 1.5665733
1.6798594 -4.0513954 1.5226725
-1.4163047 2.1448607 3.0996561
3.3525453 4.7796798 -2.0696983
2.8802261 3.9464407 0.44179094
2.0988741 -3.8692913 1.396807
2.201582 -3.8237233 1.3597801
2.29563 -3.7785046 1.318334
2.3788285 -3.7319565 1.269619
2.4581053 -3.6832795 1.2170624
2.5292716 -3.6353135 1.1601629
2.5890603 -3.5861547 1.0961753
2.641422 -3.536793 1.0267258
2.6814203 -3.4859047 0.94966978
2.7122197 -3.4342155 0.8656714
2.7349427 -3.3819923 0.77953637
2.7485414 -3.3289735 0.68283063
2.7623358 -3.2757394 0.59047431
2.7602046 -3.2213006 0.4854176
2.768873 -3.167762 0.38712049
2.7840979 -3.1146173 0.29541576
2.8126357 -3.0624094 0.21026981
2.8611014 -3.0112135 0.13818848
2.9389684 -2.9687166 0.087548137
3.0642397 -2.9312053 0.072163582
2.3239114 4.9567661 -1.2794833
2.9145875 4.9126024 -1.8158855
3.3323076 4.773982 -2.2408993
3.9845672 4.3647418 -2.9884396
4.1670203 4.185915 -3.2273235
-3.9089246 2.8912711 5.9837823
5.3470969 1.0810914 -5.6319022
3.7785275 4.5235724 -1.4311278
-3.1394465 2.3660288 7.0074019
4.7659669 -2.5225985 0.13195229
4.8468823 -2.4763527 0.081705809
4.8859997 -2.4254458 0.004478693
4.9041162 -2.3760891 -0.086091995
4.9709668 -2.3263683 -0.14623046
5.0638776 -2.2813675 -0.18799829
5.1514893 -2.2334461 -0.23570466
5.2294793 -2.1848364 -0.28954387
5.3002048 -2.1370308 -0.3464582
5.3691254 -2.0881701 -0.4050622
5.434269 -2.0411465 -0.46507645
5.50144 -1.9917258 -0.52522898
5.5631151 -1.943231 -0.58821082
5.6245728 -1.8944627 -0.65166235
5.6875372 -1.8460581 -0.71443295
5.7404175 -1.7960876 -0.783849
5.7814159 -1.7442895 -0.85952616
5.8144274 -1.6928077 -0.94144201
5.8455973 -1.6409377 -1.0246403
5.8782353 -1.5889201 -1.1067805
5.9272299 -1.5390456 -1.1780512
5.9676752 -1.4883901 -1.2550397
6.0027561 -1.4371693 -1.3367238
6.0263987 -1.3839469 -1.4235959
6.062345 -1.3338206 -1.5023584
6.101954 -1.2827914 -1.5799294
6.1256161 -1.2304597 -1.6693544
6.1423836 -1.1776421 -1.7604687
0.47117233 0.53213763 3.7811761
0.46880555 0.4781808 3.8791924
4.5365105 3.4950452 -1.1569144
0.75875497 -0.31505996 7.4890637
-3.1151433 0.49997181 7.3112783
1.9010704 4.5209846 -4.2802057
-2.5819285 0.88952684 7.9108415
3.8534999 3.3127646 0.08100915
-2.3328075 2.7514677 6.8282757
-1.0189874 3.3513174 5.7144766
2.6699529 4.1836677 0.34303188
-1.937782 2.2865129 7.4483027
1.7431732 1.9008083 2.1222692
1.65913 1.852145 2.1653271
1.576601 1.8057463 2.2147627
1.0717856 1.3608608 2.8145723
1.035028 1.3116629 2.8945918
3.9140031 3.7072577 -0.30551195
-1.6152668 2.9935887 4.3201127
-0.59062529 -5.0248599 2.0689907
-1.6849576 3.0245874 4.2491813
-5.6632328 3.0938528 5.4019289
-1.1907018 2.3187435 7.3820972
2.372957 2.8479919 1.5315852
4.1109228 3.6015375 -4.5213399
4.0286927 3.6206374 -4.5739698
-2.6312141 -1.8448286 5.4298429
-3.0607204 -2.3607652 4.8216019
3.5269141 4.7252293 -1.872473
-1.335211 2.6392646 7.048408
3.2297976 4.8198524 -1.7582285
5.496489 0.62045312 -5.4784079
5.5235262 0.67208028 -5.5597219
5.5915637 0.71908796 -5.6159611
5.6715126 0.76567769 -5.6662378
5.7443066 0.81466097 -5.7205167
5.8134036 0.86146843 -5.7811837
5.874557 0.91075122 -5.8456044
5.9245534 0.9606576 -5.9168358
5.9647465 1.0120013 -5.9942527
5.9959402 1.0651045 -6.0777493
6.0265765 1.1176307 -6.1625438
6.0397811 1.1741856 -6.2596006
-2.2327781 5.4457173 4.3562016
2.6252744 3.9845991 -5.0680232
-4.2602935 -0.10999806 5.5067554
4.9910383 2.5602725 -4.7287693
4.6052084 2.9985228 -4.7412562
2.1149819 4.8687568 -0.75923574
-5.3915911 3.0667944 5.5318818
3.0571818 4.6473465 -0.74510074
2.6843219 4.6567168 -0.41330481
2.1285257 4.5300798 0.022688031
1.6203182 4.2853031 0.36749834
1.0837567 3.9313817 0.6897248
0.5297305 3.5099256 0.99912494
-0.13811862 2.9175262 1.335405
-1.8459997 2.2543154 2.1673501
-1.7634578 2.2864773 2.1084223
3.7845826 4.1379776 -0.65970266
-4.9357529 3.7602024 5.5304728
-1.7746876 2.2476978 7.4789343
-2.0484056 2.0358496 7.6482115
-4.3563509 0.7153542 4.9462562
-3.3548527 0.49569252 -0.0270257
-4.0320768 -1.7659416 0.71637094
-4.0458474 -1.7000121 0.61096895
-3.0907304 -0.24662539 -1.5015103
-4.0603337 -0.84979844 4.4584408
-2.9653022 1.039133 -3.75596
-2.7736554 1.1809192 -3.9449322
-0.85519844 -5.030273 2.2233198
-3.9849942 0.11689129 2.0970645
-0.56702828 3.4310069 -3.6163859
-1.7056761 2.4028289 -2.7436786
3.4214294 4.7537642 -2.1410818
-0.064016223 1.9937388 2.8131132
2.0367463 -3.7974987 1.542333
2.12954 -3.7517653 1.4993597
2.2071147 -3.70979 1.4488653
2.295923 -3.6601419 1.4019816
2.3780763 -3.612879 1.3520006
2.4515438 -3.5659211 1.296737
2.516407 -3.5155182 1.2352514
2.5675707 -3.4660344 1.1656631
2.6141596 -3.4169056 1.0923204
2.6604393 -3.3659956 1.019467
2.6982508 -3.3150644 0.94137615
2.734545 -3.2637303 0.86313355
2.7643197 -3.2123055 0.77932692
2.7720556 -3.1584797 0.68126643
2.7704694 -3.103936 0.57632989
2.7759714 -3.0500035 0.47771323
2.7857699 -2.9966555 0.37981164
2.8238101 -2.9452353 0.30139363
2.8748777 -2.8952975 0.23084223
2.9538994 -2.8560357 0.183483
3.1384647 -2.8029902 0.19624686
3.4689803 4.718575 -2.3828826
3.4012547 4.7484994 -2.3120029
3.9230304 4.422565 -2.9085736
1.252602 3.0875173 1.5221457
3.1315503 3.3912253 0.75101483
0.23358485 3.1239998 1.2862022
-5.3935757 4.3103805 4.8397675
-5.3852911 4.2605147 5.0005202
4.6886625 -2.4552727 0.26819837
4.7833004 -2.4056749 0.22552872
4.8569589 -2.3605766 0.17123461
4.9002452 -2.3115301 0.096205711
4.9112086 -2.2587361 0.00053215027
4.9736171 -2.2110281 -0.061752081
5.0715661 -2.1641989 -0.10160589
5.1476703 -2.1140449 -0.1569736
5.2156444 -2.0703909 -0.21370649
5.2937231 -2.0216627 -0.26734257
5.3621926 -1.9721024 -0.32649231
5.4289007 -1.9273245 -0.38629484
5.4958057 -1.8768592 -0.44644833
5.5583305 -1.8286545 -0.50982618
5.6185985 -1.779017 -0.57407069
5.6766071 -1.728478 -0.63965607
5.7219567 -1.6770285 -0.71250296
5.7587609 -1.6263047 -0.79357457
5.7958121 -1.5746632 -0.87179995
5.8216267 -1.5223386 -0.95972204
5.8530169 -1.470628 -1.0399635
5.8956189 -1.4200966 -1.1159685
5.9416423 -1.3695233 -1.1885624
5.9771452 -1.3188305 -1.2696424
6.0223141 -1.2681015 -1.3425324
6.0649638 -1.2176013 -1.4189494
6.1024389 -1.1663167 -1.4971416
6.1299191 -1.1141367 -1.5813298
6.1460152 -1.06074 -1.676949
1.8607215 4.2578158 -4.6849661
2.3873086 4.2981834 -4.5736432
1.3806002 4.4585252 0.088378102
1.7188363 4.5419912 0.014359534
-1.324535 3.2431405 6.131454
2.80825 4.8622451 -1.1842659
4.1987238 3.8011682 -4.0102348
0.48186052 0.59045565 3.6869512
3.8262336 3.2605484 0.16576171
3.7917953 3.20436 0.24499464
3.7411056 3.1535904 0.31461716
3.7165658 3.1033003 0.4020797
-5.1389985 4.1176276 4.531981
-2.9699397 6.8946252 3.8114505
-3.9822428 -1.9156077 3.7261627
-3.4232869 -0.6899212 6.5030999
0.9942615 1.2589569 2.970427
-0.0037870482 3.4092879 0.85526025
-4.7050252 3.8029404 4.583293
-1.0877771 1.3842883 7.9550581
-2.1781898 5.0847754 2.4839566
4.0985255 4.3765602 -2.7074373
-4.4586682 3.1304574 5.7972498
2.4537981 2.8913729 1.4762064
4.188488 3.5792227 -4.4581876
3.948487 3.6406317 -4.631494
-1.7493634 -0.76989794 7.4201093
1.219666 -0.3935889 6.6255183
3.04282 4.8213944 -1.220626
4.4794302 3.6402347 -3.9380865
3.0029387 3.9675233 -4.9190578
5.4574661 0.74395043 -5.4229598
5.436615 0.79760963 -5.5317497
5.4786558 0.85038018 -5.6066809
5.5459032 0.89741755 -5.6588626
5.6366653 0.94198972 -5.7073874
5.7085009 0.99090534 -5.7633119
5.7776952 1.0372394 -5.8242025
5.8287296 1.0878844 -5.8942909
5.8707466 1.1404905 -5.9701896
5.9101052 1.1914494 -6.0484538
5.9406862 1.2442303 -6.1324997
5.9648247 1.2933991 -6.2203455
1.6586357 4.2520599 -4.7421298
3.3562169 4.3141217 -4.0222645
-3.6390173 0.21662852 6.5289369
4.920867 2.5913112 -4.7975087
-8.6091719 5.0648837 4.7883234
5.0578375 2.5244923 -4.6537037
1.2819684 4.2886233 0.29053012
2.9125373 4.6687322 -0.60837376
2.987067 4.665422 -0.6754933
2.0448644 4.4937792 0.082154036
1.5324938 4.2304287 0.42145145
0.9930554 3.8658204 0.74187922
2.758286 3.4855311 0.93009794
2.8397954 4.35044 0.074879289
-4.8540392 3.8735857 5.3132477
-4.9282031 3.8772328 5.3799014
1.9333444 3.2529793 1.3724686
1.845592 3.198947 1.4276056
-1.5779699 3.3838553 5.8404093
-3.5605912 0.91775405 2.8218107
-2.6147237 1.4990416 -1.480471
-3.1195798 -0.30194461 -1.4199443
-3.1581964 -0.35519141 -1.3435369
-3.1956317 -0.40900669 -1.266993
-3.9912686 -0.98372328 4.4110932
-3.018651 5.0311341 2.7393622
2.2462163 -7.258009 1.2534655
-2.5847955 1.3248596 -4.1359777
-2.7115667 1.2278583 -4.0092168
-0.64040244 3.3864822 -3.5588684
-1.7592773 2.3540475 -2.6753032
-0.86194706 3.0137579 -3.5544767
-4.1838188 3.3364067 5.6385741
-5.0370493 4.0657258 4.7994423
2.0731902 -3.6866248 1.6510136
2.1642096 -3.6386755 1.6062177
2.2460146 -3.5914009 1.5560551
2.3241913 -3.5417838 1.5033711
2.388288 -3.495337 1.4421948
2.442342 -3.4470332 1.3741271
2.492521 -3.3970942 1.3036129
2.5431228 -3.3469324 1.2331027
2.5977273 -3.2965777 1.1659553
2.6475964 -3.2465286 1.0953424
2.6951516 -3.1962237 1.0237548
2.7296147 -3.1452103 0.94164342
2.7666686 -3.0942867 0.86346394
2.7771103 -3.0408449 0.76587152
2.7739995 -2.985836 0.66021419
2.7779083 -2.9321964 0.56203127
2.7956519 -2.8790035 0.47040188
2.8290954 -2.8290701 0.38755524
2.8967278 -2.7785873 0.32822537
2.984175 -2.7386801 0.28609204
3.1796322 -2.6953728 0.30513048
3.5355661 4.683341 -2.4560318
3.7328167 4.5656013 -2.6786637
0.24116164 2.2940168 2.0874913
-1.2443023 1.7553124 7.8054338
-0.60706985 3.1475754 6.0321341
1.475354 2.2978189 1.9650871
-5.4576855 4.2734599 5.0692167
-5.313807 4.2453885 4.9312787
4.6995912 -2.339994 0.35834587
4.789753 -2.293632 0.31358886
4.8577409 -2.2442443 0.25437236
4.8885031 -2.1952028 0.17000294
4.9092484 -2.140727 0.081982851
4.9991374 -2.093828 0.035249233
5.0930414 -2.0503941 -0.0052132607
5.176537 -1.9980983 -0.056272268
5.2581353 -1.9522797 -0.10572958
5.3411207 -1.9073646 -0.15485883
5.4134493 -1.8618855 -0.21101189
5.4921193 -1.8121558 -0.26332402
5.5533743 -1.7639105 -0.32706213
5.6078634 -1.7165924 -0.39600039
5.6643233 -1.6650121 -0.46191669
5.70648 -1.6148753 -0.53927827
5.7364664 -1.562669 -0.62239695
5.7665558 -1.5103695 -0.70632458
5.7964621 -1.4584031 -0.78993773
5.8256836 -1.4061716 -0.87342381
5.8487124 -1.3542228 -0.96194077
5.8847132 -1.3027427 -1.0403588
5.9273047 -1.2527406 -1.1163626
5.9824624 -1.2024231 -1.1826649
6.0344691 -1.1528761 -1.2528141
6.0737 -1.1018053 -1.3304672
6.1060553 -1.0499501 -1.4141531
6.1253462 -0.99683893 -1.5044494
4.255929 3.7053041 -0.78422868
4.2163105 3.6544852 -0.69327915
4.1385121 3.5524068 -0.53820765
4.1084819 3.4991667 -0.45511615
4.1790152 3.6041899 -0.6145432
4.0647016 3.4519563 -0.37974644
4.0208874 3.3983619 -0.30588794
3.9190981 2.8426528 0.3613534
-4.179112 -1.6413864 3.1501763
0.51834977 0.64026499 3.6094089
0.57822347 0.68864858 3.5461493
0.64760125 0.73369634 3.485568
0.70834649 0.78255159 3.4217591
3.6982012 3.0489755 0.49263906
3.1932709 2.5538759 1.1985369
3.2699428 2.5975876 1.1403728
-2.285279 -2.8821838 5.1458406
0.94661045 1.2107956 3.0438869
-3.7212505 0.23118494 6.4750013
0.18623841 3.5740235 0.75889641
2.8539882 1.9081233 1.6327319
-0.84711206 2.8080034 5.1607137
-5.0779371 4.0655289 4.4554033
2.6180284 2.9834633 1.3755007
2.5359013 2.9377563 1.426473
-2.4791555 -2.6073303 5.1544514
-1.3494432 0.098772347 7.9787307
3.9783766 4.0978112 -3.7463739
1.1950045 -0.44750011 6.710928
-4.1457767 1.095669 3.8090942
0.55508113 0.47300601 7.4810953
-0.1411159 1.1715596 7.7610798
5.4376063 0.8597908 -5.3466487
5.3881559 0.92311031 -5.484726
5.3764114 0.98202574 -5.5914202
5.4226766 1.0309908 -5.6599183
5.4997869 1.0746113 -5.7114582
5.5890265 1.1181006 -5.7589407
5.6608391 1.1666237 -5.8152022
5.7134361 1.2189505 -5.882544
5.7643032 1.2694874 -5.953577
5.8113208 1.3166951 -6.0285549
5.8368902 1.3753846 -6.1142149
5.8695889 1.4210532 -6.1974792
-3.8272994 0.60146648 6.3604312
5.1888399 3.0892446 -2.3757062
4.8482714 2.6201658 -4.8642893
0.42011023 -4.6742544 1.3284671
-1.3982646 -0.95467913 7.5685854
-2.5282168 -3.0964413 4.9021463
2.3714857 4.0616302 -5.0096569
3.1351478 4.0401926 -4.7247887
2.8380189 4.6714535 -0.54204547
2.6096466 4.6591816 -0.34718418
-2.6498294 3.7634363 5.2322841
2.5482664 3.7252717 0.83212197
3.7083092 4.1320438 -0.59151363
-4.7164135 3.8205316 5.1697268
-4.7827735 3.8581021 5.2437539
-1.2089279 2.3308573 3.7582791
-2.4299397 1.6582855 7.848805
-1.1318924 2.0349331 7.6122169
-5.3271742 4.2732515 4.7657986
-3.2918308 0.54252446 -0.090514183
-4.0800257 1.0228398 3.6628797
-3.1530695 2.827096 4.0509205
-4.0940032 -0.59972769 4.0478816
-2.5558918 1.5480235 -1.5456568
-4.0124683 -0.25403291 3.5054245
-3.5035615 6.0934639 3.1650252
-4.1265364 -0.88443136 2.8417721
-3.3285527 -0.92941761 -0.74266756
-2.6517038 1.2762516 -4.0745559
-2.9074907 1.0890342 -3.8223343
-2.8449154 1.1354297 -3.8860083
-1.8110042 2.3046207 -2.6056769
-8.4465294 4.5248356 2.6548786
-2.5211506 1.3710146 -4.1994486
-4.0979977 1.3867174 3.9094374
2.1152041 -3.5707211 1.7611792
2.2057438 -3.5231414 1.716334
2.2876554 -3.4761198 1.6665345
2.3504708 -3.4285142 1.604225
2.3972023 -3.381083 1.5310416
2.4382079 -3.3274171 1.4552194
2.4809918 -3.2774532 1.3795364
2.5303633 -3.2274518 1.3084389
2.5881946 -3.1777008 1.2430472
2.6404252 -3.1282504 1.1735677
2.6898952 -3.0782802 1.1026731
2.7270629 -3.0271418 1.0246412
2.7564654 -2.9753597 0.94065458
2.7656312 -2.9217944 0.84265721
2.7681203 -2.867795 0.74382377
2.7800918 -2.8143034 0.64617455
2.7991641 -2.7615113 0.55515879
2.8399343 -2.7114005 0.47839606
2.9096212 -2.6625941 0.42064881
3.0084679 -2.614337 0.39330065
4.1060257 4.2453604 -3.1476679
4.045238 4.3104725 -3.0642262
1.3480681 3.1748931 1.4729466
-1.7509155 3.45699 5.6429062
5.2388468 1.2217909 -5.4625573
2.2194271 3.6031821 1.0730269
-5.6824679 4.2753773 5.2683058
-5.2455997 4.218586 4.8594117
-1.9196126 3.5933325 5.2779441
4.7164392 -2.2223861 0.45069122
4.7918463 -2.1795084 0.39906144
4.8509641 -2.1285112 0.33285856
4.8842964 -2.0773184 0.24906993
4.9178028 -2.0264125 0.18268156
5.0254869 -1.974499 0.13487935
5.1125555 -1.9350204 0.089586973
5.200923 -1.8870921 0.043311119
5.2973919 -1.8383536 0.0011441708
5.389873 -1.7937027 -0.041612864
5.4635458 -1.7484794 -0.095935345
5.5406442 -1.6990712 -0.15003896
5.6037655 -1.6517801 -0.21214199
5.6567812 -1.6033838 -0.28157163
5.7077131 -1.5534821 -0.35278177
5.7464037 -1.5020914 -0.43095851
5.7770996 -1.4496157 -0.51486969
5.7933288 -1.3974069 -0.61088252
5.8150449 -1.3432804 -0.69518161
5.8289995 -1.2900659 -0.79067707
5.8411813 -1.2370236 -0.88621807
5.8734159 -1.1850893 -0.96505451
5.9319668 -1.1357987 -1.0295699
5.9928274 -1.0868077 -1.0936961
6.0431509 -1.0367248 -1.1643744
6.080225 -0.98517066 -1.2425039
6.1060228 -0.93295234 -1.3313899
6.1251383 -0.8799473 -1.4218566
3.9805427 3.2878971 -0.12652981
-8.3181849 5.7674308 3.1804283
0.91685724 -0.22511733 7.0974288
3.426579 2.5162139 1.0527641
3.4860635 2.5639582 0.98688209
3.5372229 2.6148379 0.9180094
3.5981402 2.6634049 0.85454226
3.9550972 3.2370317 -0.040949583
-2.4580927 4.4256425 4.9593849
-2.3406434 4.8644524 4.716691
-4.0793009 -0.080785275 5.7984982
-2.9768286 1.7590668 1.3455805
1.091301 -0.95768386 6.7054915
0.78014052 0.82985562 3.3650336
0.90267491 0.92793989 3.2376828
3.1309915 2.5046163 1.261187
1.1543508 -0.79189378 6.724937
0.88653111 1.1626462 3.1094861
4.2673554 4.1935501 -3.0095701
-1.5620141 3.4756811 5.1043258
2.997869 2.0034137 1.5196025
-0.78449643 2.7704887 5.2414942
3.8229187 4.553093 -2.5763214
3.4011059 4.7491908 -1.5652263
2.5742126 4.2489972 -4.7041345
2.022788 4.1798725 -4.79284
-3.4852798 -1.6567345 4.5485964
-3.4466968 0.12120846 -2.1915419
2.3179183 3.789593 0.8738507
3.7294495 3.937494 -4.3698044
-0.024733782 1.2646115 7.6275172
-0.081605196 1.2190905 7.6959701
-1.3142385 -1.1078632 7.5816975
5.3532281 1.0431327 -5.4231267
5.2877369 1.1105614 -5.5607166
-2.6502476 7.5100074 0.98716366
3.2657268 4.1095514 -4.5279455
-4.104269 3.1910563 4.4370012
5.5220046 1.2979888 -5.8202996
5.5936604 1.3459451 -5.877779
-3.4557776 -1.034582 6.2631564
5.6856732 1.4496473 -6.0237999
5.7256403 1.5003842 -6.1021872
-3.3957939 5.4556913 4.0347352
-3.2877901 4.5875249 4.4032216
-9.0879555 6.1388502 3.9409142
-5.0031471 3.7281785 5.5728016
0.90378004 2.375165 1.9214389
-2.9554319 8.3051529 2.8909783
2.0100017 3.1300461 -6.0594192
-7.2955713 5.1179843 3.6448188
5.2727623 2.8532071 -1.9411846
3.9110351 4.4583602 -1.5769928
3.7113945 4.5584888 -1.3577979
3.1299 4.6348753 -0.81391168
2.6004043 4.2878189 0.26126403
-2.3572826 4.0407829 5.0929084
-4.2772908 3.4549043 4.628108
-4.3344851 3.5274706 4.7092786
-4.5835309 3.7464542 5.0217052
-3.4779258 1.5111297 7.5484672
0.32109892 2.0307441 2.4883392
0.29238865 3.7811837 0.56514263
0.19450861 3.6964834 0.61486608
0.10118512 3.6184301 0.66317791
-3.2384322 0.59157318 -0.1598053
-1.9122704 1.8398545 -4.5683312
-3.6201363 7.9715991 2.011904
-3.2579572 6.2801981 2.3301859
-3.286562 4.182323 4.0747037
-4.3568311 0.77622437 4.2824039
-0.81401873 -4.8193736 3.0811529
1.5089277 -3.9358075 2.4790461
-3.3859293 -0.97934401 -0.67634296
-2.039969 2.1091661 -2.3396771
-0.78194284 3.293982 -3.4402168
-3.1745567 3.6769688 4.0782042
-4.2400532 1.3558521 4.210721
-1.8687373 2.2552874 -2.5393691
-1.577219 2.498426 -2.8694489
1.9521989 -3.5471263 1.9455571
2.0463901 -3.5024552 1.9033866
2.135849 -3.4535761 1.8579468
2.2189596 -3.4074454 1.8086195
2.2932153 -3.3610399 1.7537491
2.3534675 -3.3116274 1.6895046
2.3958018 -3.2619832 1.613716
2.4341822 -3.2103431 1.5354818
2.4715643 -3.1588111 1.4567201
2.5194371 -3.1082582 1.3851225
2.5733824 -3.0590727 1.3162581
2.6312099 -3.0095954 1.2510521
2.678899 -2.9591761 1.1793292
2.7132015 -2.9080434 1.0970469
2.7406065 -2.8559687 1.0122364
2.7571354 -2.8029995 0.92025429
2.7642896 -2.7492654 0.82185924
2.7792602 -2.6960051 0.72970271
2.8008702 -2.6439452 0.63944042
2.8486118 -2.5926535 0.56752312
2.9249289 -2.5492663 0.51536977
3.0315235 -2.5156116 0.4901185
2.3210773 3.1294022 1.3599923
0.56339949 2.2931244 1.9959955
0.13679394 3.037359 1.3347579
-3.3048084 8.7215776 2.5237691
-2.380085 4.9389 4.7144475
-5.5299077 4.2865477 5.1381207
-5.1188188 4.1214571 4.705554
-2.3335111 3.1061645 6.2069645
4.6355596 -2.1515057 0.58306205
4.7269564 -2.1067591 0.54028428
4.7979116 -2.0595338 0.48344755
4.8493948 -2.0106006 0.41399276
4.9033585 -1.9631567 0.34618664
4.9851675 -1.9114774 0.29560614
5.0521917 -1.8671038 0.2360661
5.1218233 -1.8185718 0.17807174
5.2006912 -1.7703137 0.12550998
5.2903948 -1.7237202 0.08008337
5.3819675 -1.6780777 0.036267519
5.465313 -1.6330829 -0.011631966
5.5503578 -1.5835474 -0.061765194
5.6111255 -1.53887 -0.1242559
5.674253 -1.4872222 -0.18747425
5.7268057 -1.4378994 -0.25714159
5.7678366 -1.3871483 -0.33444142
5.7977133 -1.3348317 -0.41886044
5.8185978 -1.2818476 -0.50929332
5.8311396 -1.2280561 -0.60598803
5.8277025 -1.1731727 -0.70896626
5.8283072 -1.1187785 -0.8107059
5.8706636 -1.0678719 -0.88342309
5.9357166 -1.0199585 -0.9451623
5.9945998 -0.97038561 -1.0101626
6.0443401 -0.92024553 -1.0813682
6.0785961 -0.86856896 -1.1638925
6.1058154 -0.81621987 -1.2489655
2.3089364 1.7575314 1.9907659
2.8433089 2.0859036 1.6121135
2.6394644 1.7661495 1.8056636
2.3702896 2.6174643 1.6505387
-8.7639551 5.5188208 3.9826691
2.6599681 1.9935929 1.7027988
2.7612479 2.0397427 1.6630802
2.92137 2.1304047 1.5536089
3.8481739 2.7373288 0.51997995
0.066196494 3.2232716 1.0945079
0.42239428 -1.0292208 7.1720943
1.1409094 -0.67216522 6.7998114
2.1915016 4.8743567 -0.82358301
-0.19364905 1.992746 7.1764393
1.0185359 -1.004209 6.7628026
0.85132051 0.8767457 3.3064358
3.0730782 2.457793 1.3291566
1.2000115 -0.74028325 6.6514063
0.82538021 1.1140052 3.1738105
-2.2590485 -1.540773 6.677392
-3.2855842 0.45302093 -2.1690526
2.9260876 1.9560025 1.576714
-2.5696945 -2.5982289 5.1121964
0.47336197 -0.86544234 7.4710355
2.6651158 3.8881402 -5.1666489
2.470216 4.2424808 -4.7282701
-4.76441 3.1705854 3.9553964
3.2141991 4.1954136 -4.4146142
0.44455147 -0.37988329 7.7822962
0.68111062 0.16243619 7.4905853
4.4140148 3.1480193 -4.7708826
-0.20381975 1.1210659 7.8199129
-1.634619 -2.0329638 5.4757056
1.9834883 3.2422528 -5.9802141
5.3218246 1.164809 -5.3613591
-2.5833325 7.0230727 0.92741275
-3.4742594 1.0401262 2.8123946
-0.96966982 2.7329254 4.9459825
-3.0783494 -1.1513238 6.5821929
4.5787687 3.4648635 -4.157454
4.5043139 3.4916584 -4.2235823
3.6201246 3.713809 -4.8488908
-1.5149034 2.5453215 -2.9330525
3.5311434 3.546488 -5.1457782
3.6956918 3.5109463 -5.0377693
3.7797165 3.4947009 -4.9866467
-5.1230326 3.6880729 5.6021528
-1.6682657 2.2736592 2.212985
4.1207676 4.3929825 -2.5335565
-3.0191367 8.3772192 2.752697
-2.8658464 -0.96387088 6.8722315
3.0284696 3.8597541 0.45959389
-0.96431261 2.0885925 3.4448969
0.24609244 2.0332377 2.5547132
4.5255022 1.1841471 0.32881153
4.2333031 4.3154979 -2.1057212
4.3582935 4.2082686 -2.2606611
4.4177413 4.1472263 -2.3394434
-0.93101978 2.0015953 3.1891618
-4.2224646 3.3716908 4.5434203
-1.5883356 2.5117097 7.2232184
-3.6916084 8.5414467 1.0951796
-0.49720168 1.9813635 7.4207621
0.47594863 3.9253933 0.46632424
0.38667741 3.8566725 0.51509178
-1.2890067 3.4215186 5.4119492
-1.7314712 3.094624 6.4315982
-1.9639955 1.7906597 -4.4987803
-2.0329175 1.7431074 -4.4382906
0.56140327 -4.6786919 2.0636854
-3.9039817 -1.4781965 0.01893723
-3.8424587 -1.4304136 -0.045673728
-3.7839165 -1.3819013 -0.1118629
1.4767842 -3.9333711 2.7517724
1.5339198 -3.881155 2.686769
1.5742935 -3.8313015 2.6096287
1.6189357 -3.7760494 2.5236828
1.6626418 -3.7293935 2.4610772
1.7246901 -3.681525 2.3975341
1.8176149 -3.6274703 2.339834
1.885904 -3.5791011 2.2807045
1.9379711 -3.5364339 2.2264371
1.9736966 -3.4904485 2.1440387
2.0206409 -3.4377143 2.0726054
2.0730014 -3.3891034 2.0035577
2.1388011 -3.3372741 1.9434316
2.2109885 -3.2896864 1.8870578
2.2892811 -3.2407539 1.834396
2.3506017 -3.1923931 1.7713796
2.400713 -3.1425023 1.7009673
2.4395738 -3.0917711 1.6234062
2.4752619 -3.041573 1.5419658
2.5168343 -2.9896507 1.4676452
2.5581105 -2.9390845 1.3908126
2.6090147 -2.8892703 1.319804
2.6596138 -2.8395414 1.2501312
2.7019708 -2.7889543 1.1738799
2.7303395 -2.7369957 1.08899
2.7467229 -2.6851423 1.0024092
2.7515204 -2.6300445 0.89861685
2.7712643 -2.5762508 0.81128764
2.8059297 -2.5241456 0.72719169
2.8687563 -2.4746091 0.66322905
2.9502366 -2.4391384 0.61880219
3.1643486 -2.3909466 0.64550531
1.3785992 2.8047643 1.6793387
-0.92187166 2.817014 6.7508349
2.2080383 4.786303 -0.50142288
-0.7729494 2.0785859 3.6582286
-5.6056261 4.2823992 5.2032256
-5.0565948 4.0706711 4.6286755
3.1699066 3.734822 0.47549307
-4.087666 -0.54546022 5.4860978
4.6382504 -2.0376451 0.66923797
4.7295647 -1.9923604 0.62563753
4.7992182 -1.9437573 0.5672276
4.8681355 -1.89482 0.50873184
4.9465976 -1.8467779 0.45589995
5.0203285 -1.8008364 0.40076864
5.0816402 -1.752475 0.33730793
5.1399302 -1.7023851 0.27163172
5.1924553 -1.6541297 0.20309925
5.2653594 -1.6074359 0.14790106
5.3612018 -1.5595138 0.10512424
5.4467311 -1.5149441 0.059190035
5.5266004 -1.4672453 0.0073359013
5.5994949 -1.4199604 -0.048553705
5.6649618 -1.3699337 -0.11084008
5.7185583 -1.3206272 -0.17965364
5.7659016 -1.2698542 -0.25260162
5.8050604 -1.2186953 -0.33028626
5.8291483 -1.1657773 -0.42002773
5.838655 -1.1117604 -0.51695561
5.8273273 -1.0558679 -0.6265676
5.8148785 -1.0004666 -0.73574996
5.8651781 -0.95071781 -0.80556417
5.9318542 -0.90225095 -0.86463332
5.984333 -0.85260266 -0.9337976
6.0326476 -0.80220783 -1.0059159
6.0706983 -0.75118709 -1.0837886
6.0992942 -0.69916129 -1.1679471
1.5998023 1.3981276 2.3668065
2.3910966 1.8037117 1.9399958
3.9485555 2.8955901 0.27781177
2.5624561 1.7228308 1.8648578
2.6992803 1.8142052 1.7391472
2.4631791 1.851444 1.8834238
2.5247486 1.9005034 1.8209075
2.58459 1.9485649 1.755389
3.8087626 2.6858776 0.59686935
3.7722554 2.6360202 0.67628813
1.5495143 4.4579897 0.12736648
3.6872714 2.7643864 0.7070626
3.7257702 2.8150949 0.62917316
-0.32444048 2.3056853 6.9939113
0.9593544 -1.0540104 6.8290854
1.2997093 1.3860843 2.5690701
3.0191162 2.4052312 1.3940804
1.2332652 -0.68756962 6.5693579
0.77128458 1.0604596 3.2377741
-8.3929272 5.7921081 3.1172092
-1.8366532 2.2005422 2.3294847
-1.9785881 5.2574272 2.4484835
-8.6461258 5.4809699 2.614996
0.55681849 -0.81620628 7.4206281
3.4306459 3.7860205 0.25765991
-3.6766899 0.96753561 6.608624
-3.272079 -0.73890334 6.6324058
3.7135916 4.6427464 -2.2567894
-2.8754315 6.4245238 4.0938458
0.64547181 0.11242718 7.5699177
0.13206387 1.181129 7.5403557
-0.27636909 1.0725261 7.8715248
2.0870519 3.2534466 -5.9597092
5.2979388 2.7007635 -1.6839732
5.7007484 1.184103 -0.85607171
-7.156549 5.0018773 3.5743454
-7.7750115 4.5447645 2.8967423
4.8675833 2.9939976 -4.3898034
2.317163 4.5415373 -4.1814198
-2.0880687 0.43203685 7.7380733
-3.2354982 0.40255684 -2.0653753
-4.5425024 2.0586631 4.9891624
3.7845998 3.6774342 -4.7403216
3.8675292 3.6594138 -4.6882291
3.7037895 3.6966739 -4.797194
1.9127373 4.3492823 -4.5462732
0.92201257 4.038548 0.50020748
-4.0457401 3.1209254 5.8024654
-2.9657822 8.0838327 3.1687646
-2.5027151 -1.4474198 6.7190599
-3.2217257 3.1435094 5.66926
-3.0337706 2.6840949 6.6563807
-1.1071235 3.3836021 5.6149497
3.9714828 4.4806376 -1.8091183
-2.6008837 6.0722523 4.2616248
-0.44710863 3.0116968 6.2183456
-2.005136 2.5076394 7.2084894
3.2080297 4.1600347 0.044974923
-0.5601778 1.9391874 3.6097159
0.75610733 4.1388021 0.31186926
0.66519153 4.0735364 0.3636564
0.57046491 4.00003 0.41519529
-2.5342894 6.4917259 4.0142426
4.1185207 0.72047538 0.94774652
-0.372464 3.2994411 0.75139785
-0.46875593 3.2113891 0.79790854
-1.9325434 -4.8170485 2.743835
-2.7366557 -1.8020502 5.8823328
1.2330854 -4.0096197 3.0902591
1.3137648 -3.9610102 3.0392685
1.3927664 -3.9110689 2.987412
1.4685988 -3.8675661 2.9331591
1.5372732 -3.8171618 2.8750477
1.5890311 -3.7687435 2.8053527
1.6310195 -3.7198057 2.7286077
1.6718917 -3.6700232 2.6515155
1.719507 -3.6183181 2.5800555
1.7879448 -3.5677502 2.5221758
1.860407 -3.520668 2.4655252
1.9361346 -3.4690504 2.4129486
1.9936122 -3.4244628 2.3450274
2.0385509 -3.3770344 2.2693439
2.0701234 -3.3259516 2.1856475
2.1065044 -3.2733402 2.1076908
2.1406617 -3.2199335 2.0281436
2.1983638 -3.1698616 1.9622657
2.2724676 -3.1227376 1.9071449
2.3404489 -3.0735364 1.8480043
2.400851 -3.0243442 1.7842194
2.4494433 -2.9742517 1.7131586
2.4859006 -2.9244044 1.6323819
2.5156062 -2.8725891 1.5482084
2.540869 -2.820096 1.4627163
2.5790696 -2.7688956 1.3844404
2.6322207 -2.7193744 1.3151102
2.6797049 -2.66906 1.2433662
2.71702 -2.617965 1.1651107
2.7352941 -2.5653009 1.0737796
2.7464755 -2.5115595 0.9767524
2.7717292 -2.4590161 0.89109147
2.8139884 -2.4047065 0.81543714
2.8712492 -2.3658659 0.75130343
2.9592898 -2.3377752 0.71817631
-1.9014578 2.9091077 6.6993065
-0.76492703 3.2140481 6.0062227
0.61282778 1.4219528 3.145056
-3.3173079 1.5656875 7.6261754
-2.1620102 3.2849452 5.936398
0.42315719 3.2877822 1.1885327
-2.4181101 3.0632854 6.264185
1.0182101 3.2236249 1.4011428
4.5570202 -1.9668953 0.80208874
4.6503091 -1.923666 0.76025534
4.7308064 -1.8765187 0.70900714
4.7992058 -1.8271493 0.64970171
4.8780227 -1.7793629 0.59701025
4.9563479 -1.7311671 0.54417586
5.0304546 -1.6853105 0.48951912
5.0949526 -1.6386628 0.42869771
5.1591067 -1.5874985 0.36624503
5.2117867 -1.5388485 0.29780388
5.2631006 -1.4893848 0.22805333
5.326685 -1.4418399 0.16685295
5.4158902 -1.3948454 0.12121558
5.4961815 -1.3475935 0.070108414
5.5744591 -1.2996861 0.016612291
5.6394243 -1.2514908 -0.04353404
5.6985941 -1.2016912 -0.10955691
5.748311 -1.1513647 -0.18136835
5.7867217 -1.1001335 -0.25995493
5.8175373 -1.0478878 -0.34419847
5.8396358 -0.99581891 -0.43231297
5.8265438 -0.93908125 -0.54390454
5.7990236 -0.88134193 -0.66479254
5.8445902 -0.83127487 -0.73519611
5.8982573 -0.78198797 -0.80435538
5.9549623 -0.73300308 -0.87010932
6.0040312 -0.68266416 -0.9416914
6.0430536 -0.63169134 -1.019618
6.0745482 -0.57923704 -1.1030786
6.0903997 -0.52684557 -1.1945336
3.6856422 2.5357971 0.82621157
3.5717659 2.4361503 0.95716524
1.974561 1.2234659 2.2243366
3.4320006 2.3422256 1.0757686
1.5484533 1.3468586 2.4348884
1.4880463 1.2985612 2.499444
1.380501 1.2019461 2.6382773
1.3287565 1.1501017 2.7060256
3.9819899 2.9439645 0.19702446
2.9839416 2.179846 1.4929341
3.1329882 2.2707031 1.3768865
3.6477337 2.7129683 0.78385782
-2.2789655 1.5155998 7.9254041
-1.1419725 -0.1692971 7.9475203
1.3462127 1.4320577 2.4932094
2.758018 2.2150426 1.6428783
1.26876 -0.63530487 6.4903326
0.70243371 1.0160487 3.3004224
0.15828608 3.3028212 1.0478808
-8.2476082 5.7949777 3.4702742
5.6890869 1.1315012 -0.76927018
-7.951395 4.5664902 2.8047917
0.61879158 -0.76832336 7.3574376
3.3798337 3.735158 0.32680464
1.616542 3.1589067 -5.9792891
-4.3207707 -1.8466854 1.8715726
1.3533919 1.9971169 2.1468956
0.58460879 4.2165837 0.11905727
0.70243287 0.21752805 7.4031825
0.43595672 0.83973229 7.3759651
1.1565037 3.0013087 1.5731658
2.0307293 -7.3557358 1.2652216
1.8611324 3.2170169 -5.9824705
-3.4379234 1.0475018 2.3930461
-2.3755085 5.5335169 4.4583139
-2.3032224 -1.4497271 6.7802291
3.4653554 4.1480498 -4.2577972
-2.1742837 -3.0071483 5.1217785
-4.1566477 0.90065795 6.0146151
-5.6604095 3.9006963 3.6995873
-7.2470341 4.1039214 4.5843477
-3.116003 -0.77972728 6.7524099
-1.5659192 2.6826758 3.9483263
-2.996614 5.1733518 4.645237
-2.2812459 4.6711698 4.7634416
2.5957959 1.5428009 1.9011533
3.6574726 4.176507 -3.9773066
-7.7302551 4.2793198 3.8691926
-2.6916573 3.3024783 5.648737
1.6882704 2.6628654 1.7314754
3.7676318 4.5603261 -1.5938623
-2.5123749 6.1244402 4.2090569
1.0871373 3.1138823 1.4884737
0.95209968 2.0713747 2.140394
-3.6607533 2.708622 6.2608719
0.93853563 4.2669106 0.20660684
0.84730244 4.2032976 0.25947973
-2.8121233 6.2940617 4.1691008
-2.7166867 6.3761187 4.119174
-2.6261001 6.4374757 4.0655632
-0.17623627 3.4861388 0.65995854
-0.27724114 3.389704 0.70659953
4.548245 1.1641296 0.35264468
-6.1030736 4.1745214 5.4052849
-4.088428 -1.9945228 0.7966187
1.1921279 -3.9401171 3.2500548
1.2669653 -3.8953898 3.19554
1.345592 -3.8454027 3.1428561
1.4201504 -3.8001647 3.0883074
1.5013309 -3.7522342 3.0375023
1.5732226 -3.7047524 2.9810424
1.6340672 -3.6558278 2.9174237
1.6827186 -3.6050665 2.8461986
1.7253723 -3.5560925 2.7698081
1.7656555 -3.5057595 2.6924624
1.8145506 -3.4550445 2.6214476
1.8810259 -3.403739 2.5623341
1.9530274 -3.3560476 2.5055482
2.0182405 -3.3098648 2.4440696
2.0767522 -3.2596328 2.3792162
2.11621 -3.208755 2.3017993
2.1368127 -3.1568024 2.2113848
2.1435671 -3.1026483 2.1129758
2.1792266 -3.0505884 2.0337088
2.2500947 -3.0024602 1.976006
2.3275132 -2.9538221 1.9221506
2.3978691 -2.9056861 1.8647842
2.4513206 -2.8567643 1.7972651
2.4970102 -2.8058951 1.7251678
2.5217576 -2.7547076 1.6369736
2.5410419 -2.7010236 1.5493973
2.5791416 -2.6509333 1.4683275
2.6165669 -2.5997882 1.3897188
2.6552567 -2.5488985 1.3119366
2.6938436 -2.4980216 1.2344261
2.724396 -2.4462991 1.150659
2.7522326 -2.3939426 1.065914
2.7719932 -2.3409717 0.97463489
2.8160374 -2.2924078 0.90045106
2.8862848 -2.2568505 0.85030609
-5.764679 4.2484164 5.3346519
-5.8514194 4.2030063 5.3859668
-5.9508114 4.1053443 5.4319754
2.4062486 3.1726935 1.3038356
