# .PCD v0.7 - Point Cloud Data file format
VERSION 0.7
FIELDS x y z
SIZE 4 4 4
TYPE F F F
COUNT 1 1 1
WIDTH 1506
HEIGHT 1
VIEWPOINT 0 0 0 1 0 0 0
POINTS 1506
DATA ascii
0.083750315 -4.2196093 -1.945751
-0.01428776 -4.2380123 -1.9202009
-0.11290836 -4.2538252 -1.920001
-0.21164523 -4.2699895 -1.919811
-0.31083399 -4.2836847 -1.944991
-0.40946233 -4.2986178 -1.957471
-0.50840908 -4.3139048 -1.969921
-0.60752213 -4.3273749 -1.995111
-0.70651364 -4.3437219 -1.9949909
-0.80511969 -4.3583474 -2.0075009
-0.90363669 -4.3733435 -2.015451
-1.0025615 -4.3901758 -2.002351
-1.0993125 -4.4082031 -1.975601
-1.1975784 -4.4277258 -1.939121
-1.2974999 -4.4466395 -1.917941
-1.3952919 -4.4675555 -1.866961
-1.4932704 -4.4848657 -1.839891
-1.5910953 -4.5053816 -1.789191
-1.6885071 -4.5276742 -1.726101
-1.7854211 -4.5501723 -1.648701
-1.8799136 -4.570889 -1.5812809
-4.0715127 1.3786786 -1.986011
-4.2682953 1.3415377 -1.885281
-4.6853147 6.3498621 -6.9145212
-2.4079123 6.0928626 -1.976761
0.21082474 8.0291624 -3.661181
1.843425 -5.6455107 4.3325391
-6.4595895 0.75826263 2.924819
-5.3900104 2.0317607 -1.614031
-3.3954537 5.9269342 -1.354491
-4.9926529 0.18852764 -1.850621
-4.2654147 -0.53755653 -2.492831
8.3552799 -2.7917476 -1.247771
8.2574263 -2.8017893 -1.315881
8.1569071 -2.8114328 -1.379331
8.0592155 -2.8241613 -1.420971
7.9604292 -2.8369422 -1.459241
7.862987 -2.8509278 -1.488471
7.7656326 -2.8657193 -1.505391
7.6667061 -2.8809423 -1.5271209
7.5685811 -2.8966258 -1.539161
7.4707251 -2.9130459 -1.548131
7.3728085 -2.9286962 -1.5416909
7.2748084 -2.9465766 -1.536291
7.1743488 -2.9621539 -1.517951
7.0743141 -2.978565 -1.5046411
6.9662433 -2.9913483 -1.513971
6.8809738 -3.0052891 -1.5696909
-5.0888896 0.16802049 -1.784971
0.32371747 8.1961794 -3.797951
2.3396306 -5.7383709 -3.4626811
-5.1784496 4.9540339 -5.5321612
-3.5449755 -3.5219376 1.976779
-2.8307054 -3.8936982 1.471149
-1.7670273 0.91871667 -2.9088111
-1.8672439 0.90416008 -2.889101
2.7739127 -5.6677036 -3.350111
-5.1893106 0.14816678 -1.6982909
1.4864374 1.462465 -3.1359911
-4.848732 1.8288372 -1.744941
5.5644898 -3.0501854 -3.4388609
5.464118 -3.0594814 -3.5142109
5.3664613 -3.0709596 -3.568181
5.2688994 -3.083101 -3.610461
5.1692834 -3.0956995 -3.6482711
5.0678082 -3.1079345 -3.694241
4.968338 -3.120935 -3.731921
4.8699718 -3.1345201 -3.7596509
4.7695847 -3.1487696 -3.7806709
4.6718564 -3.1636307 -3.796921
4.5745168 -3.1781974 -3.818011
4.4724145 -3.1901164 -3.8568909
4.3751097 -3.2045863 -3.875561
4.2763481 -3.219378 -3.8893311
4.1763844 -3.2325277 -3.924931
4.0771933 -3.2464662 -3.9509809
3.9782817 -3.2616568 -3.965251
3.8792887 -3.2767787 -3.9748709
3.7821662 -3.2947631 -3.9660511
3.6811557 -3.307056 -3.996491
3.5812066 -3.3176117 -4.0582809
3.481555 -3.3301754 -4.0949411
3.3835607 -3.3461719 -4.1112409
3.2849724 -3.3630826 -4.1136708
3.186235 -3.3799462 -4.1156812
3.0877411 -3.3922758 -4.1367111
2.9881318 -3.4059362 -4.1619511
2.888737 -3.420059 -4.1872311
2.7905738 -3.4354343 -4.2005711
2.6916389 -3.4504764 -4.2158208
2.5921195 -3.4658542 -4.2133012
2.492857 -3.4792774 -4.2361312
2.393676 -3.493022 -4.2624211
2.2942002 -3.5064385 -4.2836709
2.1954815 -3.5215678 -4.2966309
2.0970941 -3.5378292 -4.314971
1.9974585 -3.5510685 -4.3365312
1.8986065 -3.5668266 -4.3513808
1.7991521 -3.5826797 -4.3642712
1.7002075 -3.5970852 -4.3602209
1.6014056 -3.6164196 -4.3363109
1.5028236 -3.6359918 -4.2985711
1.4051841 -3.6542916 -4.2582111
1.3067153 -3.6753447 -4.2080412
1.2091475 -3.6953743 -4.1563611
1.1114359 -3.7171173 -4.0926609
1.0152471 -3.7369692 -4.026701
0.91714156 -3.7602527 -3.951031
-4.3648252 -0.55547833 -2.4573309
-5.3818846 7.8145275 -6.7496009
-5.0848503 3.2720683 -1.664271
-2.1596339 5.8371539 -1.903301
-3.9538376 3.743907 -1.515391
-3.7243764 -3.1533339 2.488549
-1.4894004 7.3032513 -2.609731
3.6535485 1.2267742 -3.0926111
0.05970902 -4.0723572 -2.021801
-0.037609212 -4.0948582 -1.945721
-0.13596956 -4.1122494 -1.932711
-0.23512702 -4.127357 -1.945141
-0.33379495 -4.1410809 -1.970211
-0.43245786 -4.1572647 -1.9701411
-0.53165704 -4.1710219 -1.995241
-0.63091528 -4.1861968 -2.0078211
-0.7296291 -4.2007174 -2.0203309
-0.82875413 -4.2160935 -2.032831
-0.92711329 -4.2318945 -2.032671
-1.0249622 -4.2480402 -2.014581
-1.1246645 -4.2652693 -2.0034709
-1.2214012 -4.2829399 -1.975521
-1.319802 -4.3016739 -1.951821
-1.4179214 -4.3197556 -1.926551
-1.5158083 -4.3377705 -1.900931
-1.6138325 -4.3599076 -1.838681
-1.7105722 -4.3810105 -1.773421
-1.8093779 -4.406136 -1.687541
-1.9045548 -4.426496 -1.620821
3.5548241 1.2093154 -3.067421
-4.4614491 -0.57469028 -2.415731
1.463007 -5.5859685 4.4878988
-2.3102539 6.1082287 -2.017581
0.11073328 8.0126009 -3.5845211
1.7345339 -5.7126923 4.3579588
-2.4362006 -2.724823 3.117249
-3.7671802 4.5156074 -1.066591
-5.6502562 3.6213193 -1.464191
-3.3872993 -2.6522746 3.0748191
-4.5618997 -0.59294891 -2.3685811
8.430603 -2.6377892 -1.220111
8.3366671 -2.6494272 -1.280321
8.2328472 -2.6584289 -1.352271
8.1334982 -2.6697702 -1.403041
8.037405 -2.6833196 -1.435411
7.9401364 -2.6968017 -1.4647911
7.8411722 -2.7124252 -1.484521
7.743732 -2.7272508 -1.492031
7.6458282 -2.7442656 -1.4919209
7.5474386 -2.759748 -1.493631
7.4492292 -2.7769432 -1.491371
7.3514271 -2.795238 -1.486991
7.2510877 -2.8113225 -1.474391
7.15097 -2.8268862 -1.4634711
7.0314803 -2.8393617 -1.466091
6.9571991 -2.8552375 -1.508491
-4.6617117 -0.61191648 -2.319571
-5.8035989 2.7008994 -1.380201
-3.4736488 -3.0708764 2.6833191
1.3715783 -5.7760611 4.4556689
-3.0196669 -3.8947511 1.405829
-2.9266708 -3.8978922 1.441389
-1.9651458 0.88592029 -2.873951
-3.4687147 2.6361587 -1.577811
-3.5672107 2.6221783 -1.605221
-4.7588654 -0.63155645 -2.2667511
-4.1312675 2.9812613 -1.715551
-4.8577104 -0.65215284 -2.1909211
-0.069293328 1.0636857 -3.142911
5.5423374 -2.9092355 -3.4529109
5.4434528 -2.9194806 -3.517801
5.3459969 -2.9314635 -3.5607309
5.2462945 -2.9438329 -3.598861
5.145699 -2.9572749 -3.633811
5.0457168 -2.9704981 -3.6697309
4.9459143 -2.9834502 -3.706351
4.8467565 -2.9963202 -3.7447109
4.7483244 -3.0097437 -3.7722411
4.6508904 -3.024224 -3.790761
4.5507131 -3.0383899 -3.8133509
4.4515371 -3.0524879 -3.838371
4.3514304 -3.0656297 -3.8719511
4.253602 -3.080112 -3.888741
4.1538434 -3.0943022 -3.911881
4.0544944 -3.1083264 -3.937711
3.9561863 -3.1232388 -3.953361
3.8580987 -3.1386428 -3.965601
3.7596288 -3.1538744 -3.9775009
3.6587858 -3.164541 -4.036551
3.5567906 -3.1735575 -4.1068611
3.4589779 -3.187885 -4.1363611
3.361599 -3.2042501 -4.1540809
3.2621288 -3.2198122 -4.1665711
3.1618187 -3.2332699 -4.1733012
3.0633552 -3.2486017 -4.1870208
2.9649608 -3.2632847 -4.2150311
2.8654933 -3.27669 -4.2379808
2.7656116 -3.2886319 -4.2736912
2.6659818 -3.3017793 -4.2965112
2.5678437 -3.3199351 -4.2878308
2.4698744 -3.3377504 -4.2780509
2.3706415 -3.3518066 -4.287271
2.2721255 -3.3673189 -4.3011708
2.1731741 -3.3813004 -4.3261108
2.0728037 -3.3929048 -4.3594208
1.9735184 -3.4055419 -4.3973408
1.8751538 -3.4216278 -4.4285512
1.7756028 -3.4357853 -4.437851
1.6768335 -3.4539194 -4.4302211
1.5776607 -3.4703357 -4.4132209
1.4791855 -3.4901342 -4.3749609
1.3806801 -3.5112133 -4.3249211
1.2826458 -3.5299602 -4.2853808
1.1833925 -3.5530915 -4.2243409
1.087218 -3.5713716 -4.1697311
0.99228251 -3.5889087 -4.1138911
0.89125311 -3.6161687 -4.0305309
-5.4230614 7.7929196 -6.7374911
-3.3506372 4.431838 -0.96432102
-2.0656884 0.87131214 -2.8422711
-2.8042576 6.0265436 -1.788391
-4.7379198 -3.0478282 1.5306489
-5.1491127 0.80311865 3.7029691
-2.0844972 6.0002151 -2.0163109
-0.35583174 7.787847 -3.1744809
0.036557384 -3.9305937 -2.034591
-0.061156802 -3.9524488 -1.970871
-0.15950708 -3.9681778 -1.970771
-0.25817996 -3.9857702 -1.957811
-0.35708749 -3.9982362 -1.995561
-0.45579743 -4.0143156 -1.9955209
-0.55498707 -4.0293474 -2.0080211
-0.65454543 -4.043395 -2.0143411
-0.75338572 -4.058331 -2.0266311
-0.85200781 -4.0733027 -2.040051
-0.95062888 -4.0879612 -2.051791
-1.048455 -4.1031008 -2.047261
-1.146642 -4.1212034 -2.0385611
-1.2446747 -4.1377225 -2.0245111
-1.3435671 -4.1578913 -1.990101
-1.4403498 -4.1732912 -1.973091
-1.5392524 -4.1939063 -1.938331
-1.6367298 -4.2141242 -1.887791
-1.7340795 -4.2370658 -1.8119709
-1.8307359 -4.2592692 -1.734531
-1.927726 -4.2820525 -1.658691
-5.2637773 2.5019975 -1.714221
2.7650084 1.0873594 -3.1359811
-4.0268183 3.5880718 -1.570981
-2.2081378 6.1287556 -2.072051
0.012659917 7.9971685 -3.506881
1.62292 -5.7676692 4.3650489
-3.836827 -2.762969 2.8329389
-3.6688049 4.5309858 -1.051811
-6.15453 2.3422863 -1.276421
2.665529 1.0708948 -3.156651
8.5107737 -2.4879122 -1.157951
8.4073734 -2.4957848 -1.245191
8.311717 -2.506855 -1.3031909
8.2118797 -2.5185671 -1.3540111
8.1148529 -2.5306947 -1.396961
8.0170135 -2.5443482 -1.426071
7.9180384 -2.5599637 -1.446511
7.8207808 -2.5751147 -1.451071
7.7227678 -2.5912459 -1.452261
7.6244206 -2.6080172 -1.441031
7.5261636 -2.6254225 -1.438401
7.4279881 -2.6436648 -1.423421
7.3276334 -2.6621413 -1.416151
7.2263803 -2.6765485 -1.406561
7.0998225 -2.6880579 -1.4088809
7.0331917 -2.7031369 -1.452971
2.5668507 1.0562781 -3.1711011
-5.1116076 2.8223457 -1.7095309
-4.78933 3.3214054 -1.723551
-1.9229945 7.5272803 -2.3459809
-2.1622925 0.85216415 -2.824801
-2.2605796 0.83507824 -2.823231
-5.6568923 1.8335711 -1.449331
-5.7826147 1.959656 -1.4022011
-4.6797271 1.4104236 -1.696021
-3.4435916 2.4926214 -1.606521
-5.7286472 2.2689059 -1.476881
-0.84282804 0.21010911 -3.1665311
-4.3576069 1.9099646 -1.784601
5.6194267 -2.7598464 -3.3770411
5.5229607 -2.7696378 -3.4458611
5.4195147 -2.7814457 -3.503031
5.3250356 -2.7933621 -3.5387211
5.2211437 -2.806962 -3.5795109
5.1241779 -2.8197987 -3.610441
5.0237665 -2.8332522 -3.6454811
4.925581 -2.84689 -3.673171
4.8234215 -2.8595974 -3.7159109
4.7263036 -2.8726912 -3.7479811
4.6269875 -2.8867307 -3.7727611
4.5279312 -2.9006882 -3.7985711
4.4288492 -2.9145486 -3.8245211
4.3281875 -2.9276366 -3.856061
4.2292414 -2.941648 -3.8823509
4.1300411 -2.9555271 -3.9063809
4.0338635 -2.9713573 -3.919241
3.9338715 -2.9855444 -3.9389009
3.8345048 -2.9994602 -3.960911
3.7382057 -3.0138819 -3.9927709
3.6378472 -3.0246036 -4.0531111
3.5344319 -3.0325189 -4.134521
3.4374578 -3.0460048 -4.1779609
3.3371298 -3.059921 -4.2011209
3.238306 -3.0754111 -4.215261
3.1384723 -3.0904031 -4.2267809
3.0387149 -3.102042 -4.2599111
2.9412248 -3.1183434 -4.2776809
2.8407526 -3.1311586 -4.2986412
2.7427793 -3.1449852 -4.3410411
2.6427994 -3.158097 -4.3633809
2.5437202 -3.1738906 -4.361341
2.4454081 -3.1918411 -4.351881
2.3476202 -3.2097793 -4.340991
2.2484343 -3.2239399 -4.3516412
2.1501095 -3.2381055 -4.377831
2.0492761 -3.2484469 -4.4230008
1.9510572 -3.2629604 -4.4664311
1.8511504 -3.276597 -4.4908209
1.7516011 -3.2952394 -4.483501
1.6533904 -3.3095493 -4.476481
1.5545583 -3.3261342 -4.462121
1.4557564 -3.3448303 -4.4379811
1.3577116 -3.3642774 -4.398921
1.2604299 -3.3826621 -4.3583908
1.1607156 -3.4062715 -4.2989411
1.0644107 -3.4248152 -4.244431
0.96712196 -3.445904 -4.1799312
0.8687607 -3.4692991 -4.105401
-0.74352705 0.22610006 -3.1760111
-4.5032682 2.1830401 -1.785091
-4.1786823 3.2672651 -1.6602809
-1.0732902 6.6190214 -2.4051111
-0.97433031 6.6318603 -2.397681
-0.60162854 7.4489231 -2.903851
-0.35453063 8.3867235 -3.4172211
-2.1011047 -6.4294429 3.608659
0.012791881 -3.7850192 -2.0978911
-0.084556989 -3.8076463 -2.0216711
-0.18300448 -3.824616 -2.008791
-0.28130001 -3.8417134 -1.995961
-0.38028401 -3.8565099 -2.008431
-0.479366 -3.8716464 -2.020901
-0.57896185 -3.8864791 -2.0138509
-0.67781675 -3.9015791 -2.0266509
-0.77707946 -3.9150634 -2.0503409
-0.87644488 -3.9278347 -2.0703709
-0.97504932 -3.9426625 -2.083811
-1.072628 -3.9609625 -2.076221
-1.1709771 -3.9767623 -2.075141
-1.2692895 -3.992475 -2.0708809
-1.3660771 -4.0103359 -2.048691
-1.4639693 -4.0283813 -2.023411
-1.563825 -4.0511632 -1.979231
-1.6610079 -4.0711317 -1.927111
-1.7562908 -4.0912042 -1.860531
-1.8530586 -4.1131525 -1.7833411
-1.9496253 -4.1354132 -1.706911
2.1714463 0.99284232 -3.2048709
-4.0790343 0.79906589 -2.2112811
-6.0527725 2.3607318 -1.352641
-2.1096346 6.1448636 -2.0979609
-0.083968155 7.9827752 -3.440331
-1.7457603 -3.083055 2.9401691
-2.0379031 5.7075005 -1.814931
-3.8636189 4.5022569 -1.086311
-5.7074976 2.1227145 -1.455411
2.0723195 0.97683835 -3.215261
8.4891319 -2.3449378 -1.186061
8.3897524 -2.3551903 -1.252401
8.2897997 -2.3671942 -1.303131
8.1912518 -2.3802714 -1.342151
8.0931473 -2.3939061 -1.3692811
7.9957209 -2.4081826 -1.385561
-6.2018967 2.0331709 -1.216481
-4.397038 0.88426822 -2.009541
-6.5847683 0.97980809 1.634639
-5.871748 0.63895237 2.504509
7.5033836 -2.4884396 -1.364641
7.4049182 -2.507467 -1.347881
7.3043914 -2.5246038 -1.3443609
7.1811271 -2.534853 -1.347741
-5.4794645 3.2038977 -1.5272911
-5.5790272 3.1855972 -1.463331
-3.2479942 5.6492839 -1.449121
-4.9152026 2.8554783 -1.746931
-1.5387462 7.5956316 -2.574671
-2.7303386 5.5847688 -1.647171
-5.120193 7.1551471 -6.842391
-3.3702226 2.6505435 -1.5371211
3.197006 2.1613617 -2.8550711
-5.5087452 2.7543831 -1.566761
-5.0488129 7.3102221 -6.9697509
-5.8290844 2.2510746 -1.440851
-5.4131088 1.5815036 -1.540481
1.3883197 1.4452037 -3.1214211
-5.8063149 2.1051397 -1.415701
5.5981536 -2.6208634 -3.3665609
5.4989481 -2.6313214 -3.4309211
5.3996391 -2.6431727 -3.4822309
5.3000875 -2.6560445 -3.520421
5.1984649 -2.6685658 -3.566541
5.1005278 -2.6813438 -3.6078711
5.0006952 -2.694169 -3.644371
4.9034557 -2.7078998 -3.674561
4.8016043 -2.7200627 -3.7187209
4.7045822 -2.7335663 -3.759011
4.6045079 -2.7478065 -3.7862411
4.5064373 -2.7620437 -3.8027611
4.406848 -2.7758934 -3.8261311
4.3060732 -2.7885234 -3.8586609
4.2081399 -2.8027287 -3.8877211
4.1173105 -2.8205569 -3.919631
4.0130506 -2.8352172 -3.945971
3.9105732 -2.8484814 -3.9683609
3.81196 -2.8605666 -3.9894309
3.7114573 -2.8699951 -4.0352211
3.6123593 -2.8820252 -4.0863209
3.5118816 -2.8922493 -4.1477509
3.4121623 -2.9030418 -4.2116408
3.3151116 -2.9178362 -4.2421708
3.2139487 -2.930892 -4.2620111
3.1160376 -2.9465821 -4.2787509
3.015538 -2.9587131 -4.3123112
2.9175403 -2.9733434 -4.341671
2.8198872 -2.9884253 -4.3591008
2.7191021 -3.0004799 -4.3914709
2.6193593 -3.0141923 -4.4113412
2.5201864 -3.0308008 -4.4148312
2.4219344 -3.0469594 -4.4149508
2.3237927 -3.0647714 -4.4048009
2.2165911 -3.0790169 -4.4173412
2.1257088 -3.0913966 -4.449461
2.0262563 -3.1045766 -4.4893508
1.9282203 -3.1198609 -4.5211911
1.8275232 -3.1324079 -4.539391
1.7291992 -3.1516259 -4.5182509
1.6300998 -3.1686988 -4.5040908
1.531181 -3.1858237 -4.4902511
1.4329178 -3.2021666 -4.4752412
1.3341603 -3.2210786 -4.4507709
1.235655 -3.2407503 -4.4135008
1.1373489 -3.2611704 -4.3619409
1.0389175 -3.2832909 -4.2994208
0.94380188 -3.3011601 -4.243371
0.84621334 -3.3237443 -4.1673112
-3.7123232 3.4857092 -1.4726011
-0.2810629 7.9505463 -3.300941
-2.8073232 6.6339421 -1.805951
-1.3689941 6.5709715 -2.377501
0.084347494 7.5567613 -3.216321
-0.70090103 7.4319849 -2.8805511
-1.5896556 7.2867656 -2.5498109
4.6714549 -5.253027 -3.130511
-0.010950437 -3.6402307 -2.1486311
-0.10921227 -3.6592665 -2.110491
-0.20662032 -3.6798582 -2.0596111
-0.3051905 -3.6967561 -2.0467911
-0.40401936 -3.7129152 -2.0465109
-0.5028463 -3.7278082 -2.059041
-0.60149485 -3.7438276 -2.042331
-0.70145446 -3.7568753 -2.0624311
-0.80057085 -3.7717943 -2.075201
-0.90008593 -3.7837491 -2.1086309
-0.99840546 -3.7987139 -2.1216309
-1.096411 -3.8155322 -2.1254511
-1.1944757 -3.8317227 -2.125061
-1.2921822 -3.8501744 -2.101671
-1.3894082 -3.8651381 -2.097851
-1.488469 -3.8845634 -2.0770609
-1.5865657 -3.9043229 -2.040431
-1.6838778 -3.925648 -1.976801
-1.7802815 -3.94766 -1.898991
-1.8785142 -3.9706502 -1.824021
-1.9765887 -3.9935544 -1.748901
-2.0719669 -4.0150089 -1.671051
-5.058825 0.60874975 -1.659941
-3.7885804 0.85904121 -2.4076509
-1.9128742 6.1768379 -2.137831
-0.18321513 7.9657397 -3.365561
-2.3588424 0.81860375 -2.822021
-2.45736 0.80188644 -2.820091
-3.1413164 1.2637787 -2.545871
-4.5077357 0.98964858 3.7637789
-0.15357365 0.32857066 -3.269191
-3.3425813 3.0985835 -1.433741
-3.3673444 0.78968334 -2.6290109
-2.85255 5.7163706 -1.682891
-1.7661688 5.9055471 -1.952111
0.49253422 0.72449875 -3.2788911
0.3936559 0.70954669 -3.2817509
-4.804924 -3.2899106 0.294269
0.29506981 0.69332474 -3.2910111
0.19613227 0.67714834 -3.2813611
0.097040795 0.66104883 -3.273221
-4.0285859 1.1008735 -2.165041
-0.16734844 1.0460291 -3.1395409
-0.0014102589 0.6440382 -3.2690511
-0.099876963 0.6271264 -3.2557111
-0.19802018 0.60996211 -3.2396309
-0.2962136 0.59228367 -3.213861
-0.39597499 0.57466054 -3.1806509
-0.49368358 0.55756509 -3.1651211
-2.5078499 6.6829944 -2.0315909
-0.59279644 0.54044974 -3.1421111
-5.5754199 3.7830174 -1.491511
-3.5184679 2.9245257 -1.521131
-4.8808851 6.9025736 -6.9931512
-3.0767608 5.2262621 -1.3565609
-4.9049335 7.0428381 -7.0079908
-1.640698 6.3746505 -2.263571
-2.7770588 0.89421117 -2.7722909
-0.69164503 0.52428734 -3.1301911
-0.79014719 0.5074712 -3.1172111
-5.292448 1.4545158 -1.553841
-5.3926368 1.4340914 -1.494001
-0.88896042 0.49121326 -3.105211
-0.98661464 0.47351894 -3.0889609
-1.0843307 0.45551103 -3.0728509
5.3716173 -2.5051165 -3.473881
5.2785664 -2.5174851 -3.521821
5.1756444 -2.5268512 -3.592761
5.0754428 -2.5387526 -3.642091
4.9766393 -2.5517488 -3.681041
4.8788223 -2.5649028 -3.722611
4.7776794 -2.5763559 -3.769181
4.681047 -2.5898285 -3.814151
4.5802188 -2.6023757 -3.848321
4.4814711 -2.6188564 -3.862941
4.3828096 -2.6324275 -3.8881409
4.2808084 -2.641921 -3.9304211
4.1828756 -2.655812 -3.972671
4.088335 -2.6731548 -3.999151
3.9871619 -2.6888349 -4.0194411
3.8868992 -2.7038035 -4.0321312
3.7882564 -2.7158329 -4.053401
3.6906998 -2.728966 -4.093781
3.588618 -2.7377532 -4.1501508
3.4891281 -2.749228 -4.2003608
3.3882031 -2.7604647 -4.2484512
3.2933016 -2.7729743 -4.290781
3.1915081 -2.7887628 -4.3038011
3.0930314 -2.8049066 -4.3057108
2.9917295 -2.8162534 -4.3487411
2.8924367 -2.8291655 -4.3854008
2.794225 -2.8439813 -4.401701
2.6955554 -2.8589714 -4.416081
2.5961893 -2.8730187 -4.4408212
2.4978004 -2.8892701 -4.4444609
2.3986545 -2.904386 -4.4560208
2.3008764 -2.920723 -4.4591808
2.2019002 -2.935569 -4.4682012
2.1023631 -2.9494309 -4.4912009
2.0029955 -2.9620607 -4.527781
1.9047139 -2.976625 -4.5576911
1.804009 -2.990145 -4.5780711
1.7054119 -3.0059133 -4.5767112
1.6070288 -3.0252717 -4.554831
1.5082359 -3.0447259 -4.5171909
1.409418 -3.0621693 -4.5033412
1.3106282 -3.0794058 -4.4911909
1.2120368 -3.0978963 -4.4653611
1.1125112 -3.1193092 -4.4167609
1.0161467 -3.1377308 -4.3614211
0.91904342 -3.1588409 -4.2966409
0.82213879 -3.1808207 -4.219491
-1.1835414 0.43888643 -3.050241
2.9241774 1.9755946 -2.9225609
-3.5424764 2.4784784 -1.6329809
-0.87597567 6.6515889 -2.4047511
-0.014183512 7.5404468 -3.1531911
-0.80063021 7.4146705 -2.845041
-1.6863973 7.2705317 -2.5078609
-1.2815703 0.42163897 -3.0358911
-1.3808008 0.40622616 -3.0185511
-0.13300888 -3.5138793 -2.1737709
-0.23077951 -3.531734 -2.1484711
-0.32940972 -3.5491476 -2.135401
-0.42754847 -3.5669792 -2.110121
-0.52635962 -3.5821636 -2.1223509
-0.62512273 -3.5989299 -2.092911
-0.72465789 -3.6125484 -2.1014011
-0.82415938 -3.6277206 -2.1133809
-0.92318624 -3.6409039 -2.136441
-1.0229685 -3.6539845 -2.156661
-1.1201277 -3.669626 -2.172421
-1.2178223 -3.6859801 -2.173651
-1.3160615 -3.7054784 -2.1525011
-1.4142959 -3.7245605 -2.1297309
-1.5129724 -3.7430241 -2.1061311
-1.6111102 -3.7613723 -2.079941
-1.7075554 -3.7810116 -2.027061
-1.8049653 -3.8034458 -1.951431
-1.9013865 -3.8240027 -1.885951
-2.0001299 -3.8472862 -1.811981
-2.0977821 -3.8700426 -1.7360409
-2.1925406 -3.8959851 -1.608041
-2.2807839 -3.9225972 -1.448741
-1.4787152 0.38889563 -3.0239511
-1.5773588 0.37246197 -3.0323811
-1.6761649 0.3571164 -3.0357709
-2.5569403 0.78631699 -2.810971
-2.6559677 0.76962006 -2.7992311
-4.9198494 2.2636652 -1.758021
-3.9894528 -3.4370139 1.755599
-2.7534039 -2.8177185 3.077389
-3.5697479 4.5464725 -1.038541
-3.2440164 3.1137898 -1.394871
-1.7750161 0.34186488 -3.0399711
-4.1093769 2.2464387 -1.781971
-5.5350342 1.7070765 -1.503541
-4.2557049 2.5188012 -1.7700109
-1.8738227 0.32601294 -3.041631
-1.972515 0.31007791 -3.048831
-2.0712764 0.2941319 -3.049191
-4.518198 1.0064185 -1.895741
-4.7977777 2.1346731 -1.757641
-3.9803464 3.2988811 -1.605881
-5.2338085 2.9495959 -1.6609811
-4.3034391 2.8075895 -1.770101
-4.2051077 2.8228602 -1.746141
-4.2061934 4.0024123 -1.524551
-2.1703563 0.27904662 -3.0521209
-2.2692239 0.26338753 -3.052711
-2.2110717 6.7321258 -2.209681
-2.7547956 0.7527523 -2.786411
-2.3684192 0.24787906 -3.0531111
-3.3222795 2.9532704 -1.453171
-1.3404762 7.6280475 -2.700211
-4.5269623 2.3277149 -1.781881
-5.5320177 2.3054149 -1.596781
-5.6297765 2.8807049 -1.487251
-2.9738655 0.85939515 -2.732491
-2.8767028 0.87731552 -2.749841
-3.664115 0.73660463 -2.5162311
-2.8535767 0.73558819 -2.7616911
-5.1947827 1.4720094 -1.592961
-2.4667089 0.23048905 -3.048651
-2.565722 0.21389565 -3.0368609
-2.6664326 0.198046 -3.0157809
5.4523945 -2.3558726 -3.3904109
5.3502526 -2.3637686 -3.489311
5.2558947 -2.3747241 -3.5605609
5.1550555 -2.3861194 -3.622771
5.0526204 -2.396066 -3.681041
4.9549394 -2.4093704 -3.7230811
4.8542914 -2.420887 -3.771301
4.7563629 -2.4342914 -3.8128209
4.6573319 -2.4472528 -3.8517311
4.5572338 -2.459877 -3.8872809
4.4597073 -2.4751821 -3.904031
4.3594141 -2.4875941 -3.9395909
4.2578216 -2.4990885 -3.983331
4.1588287 -2.5119121 -4.0218811
4.0615134 -2.5261204 -4.0525012
3.9633889 -2.5405281 -4.0813808
3.8629203 -2.554132 -4.1014009
3.7631447 -2.5680215 -4.1248808
3.6642094 -2.5806336 -4.163281
3.5648451 -2.5922608 -4.2144008
3.4656417 -2.6050975 -4.2520709
3.3668635 -2.6184442 -4.291091
3.2680438 -2.630441 -4.3273511
3.1680787 -2.64678 -4.329011
3.0705991 -2.6636572 -4.3216009
2.9704933 -2.6778922 -4.343771
2.8710842 -2.6907718 -4.3811808
2.772043 -2.7046967 -4.404541
2.6728342 -2.7196708 -4.416501
2.5735042 -2.7337525 -4.439671
2.4745681 -2.7489164 -4.4516311
2.3755739 -2.7639678 -4.463141
2.2772756 -2.780215 -4.4669709
2.1774719 -2.7941194 -4.4873009
2.0788436 -2.8080292 -4.5149412
1.9798166 -2.8210201 -4.5535812
1.8823706 -2.8363225 -4.5714211
1.7810898 -2.8486989 -4.6017609
1.6822158 -2.8629112 -4.6294112
1.5838836 -2.881695 -4.6224508
1.4843968 -2.8995175 -4.5942211
1.3856627 -2.9194078 -4.556901
1.2862043 -2.939008 -4.5332808
1.1888541 -2.9544668 -4.5159712
1.0906973 -2.973527 -4.4767609
0.99437469 -2.9908078 -4.4348812
0.89457548 -3.0161822 -4.3494411
0.79888213 -3.0371804 -4.2701111
0.70080149 -3.06126 -4.1820111
-2.7649107 0.18011993 -2.988451
-4.496099 3.3677475 -1.715381
-1.935967 6.9285803 -2.382601
-2.2636657 -3.0366521 2.9010689
-0.89758343 7.400732 -2.8265409
-1.7852837 7.2541609 -2.457931
-4.8606453 6.7605915 -6.9740009
-2.8632407 0.16100234 -2.949621
-0.156974 -3.3669798 -2.250001
-0.25465572 -3.3860352 -2.211971
-0.35323113 -3.4029641 -2.199121
-0.45195913 -3.4190569 -2.1988909
-0.55065852 -3.4320061 -2.191941
-0.64914572 -3.4508348 -2.167731
-0.74817538 -3.4666209 -2.1665111
-0.84773159 -3.4808095 -2.1756811
-0.94737732 -3.4934733 -2.1974511
-1.0454431 -3.5097849 -2.2132211
-1.1433966 -3.5260994 -2.213351
-1.2415092 -3.5435219 -2.2167211
-1.3391737 -3.5585957 -2.213691
-1.439353 -3.5825925 -2.1741509
-1.5360539 -3.6002979 -2.1316209
-1.6338251 -3.617383 -2.1173511
-1.7308625 -3.6373081 -2.0652909
-1.8293824 -3.6604044 -1.9906811
-1.9259468 -3.6809535 -1.925751
-2.0238166 -3.7025292 -1.861201
-2.1168039 -3.7231598 -1.781481
-2.2108266 -3.7492087 -1.640481
-2.3079252 -3.7764843 -1.502601
-2.3961449 -3.8068891 -1.353811
-2.5102582 -3.8360496 -1.266801
-2.6026204 -3.8409386 -1.228901
-2.7056322 -3.852232 -1.184411
-2.8055637 -3.8745999 -1.160411
-2.9030435 -3.8800969 -1.1681809
-2.996376 -3.8945858 -1.110401
-3.0947587 -3.9078093 -1.086581
-2.950063 0.71716762 -2.7425909
-3.0498524 0.70055258 -2.7209909
-3.1485713 0.68420827 -2.7088311
-5.7267032 2.8623159 -1.417281
-2.234391 5.6754684 -1.787531
1.0593088 -5.8636694 4.4191489
-3.5412629 3.0693429 -1.512531
-2.9621997 0.14138016 -2.8874609
-4.7168899 0.96988642 -1.7843111
0.040062435 8.4502335 -3.7367711
-4.0111542 2.2611861 -1.776281
-5.6327214 1.6885669 -1.4357409
-4.6494775 2.4571426 -1.7873909
-3.0598571 0.12166041 -2.824651
-4.7477622 2.4420824 -1.794801
-3.1573582 0.10338286 -2.7986209
-3.2549546 0.085900068 -2.7854011
-3.3530157 0.068343878 -2.7706211
-3.8831003 3.3132708 -1.578331
-6.0261493 2.8093195 -1.2348011
-3.4517317 0.05108881 -2.7580509
-3.6895542 0.87766165 -2.4581909
-3.5498922 0.034225523 -2.7432611
-5.4759016 0.86273158 3.7221091
-1.7140062 6.8142953 -2.433521
-1.1917008 7.9523125 -2.7782509
-3.6482875 0.016413867 -2.7163711
-3.4180605 2.9399226 -1.485901
-3.246274 0.66701263 -2.693331
-4.7087703 -2.8012726 2.040889
-5.4378943 2.3231575 -1.653191
-5.5113378 1.562706 -1.475841
-3.3467226 0.65059674 -2.660491
-3.0724137 0.84216678 -2.7074709
-1.8889372 1.0412544 -2.8106611
-3.7655554 0.71871549 -2.4574511
-5.3040447 3.3824375 -1.5861011
-3.6672924 5.728972 -1.124701
-3.7445071 -0.00074958801 -2.671771
-0.26741123 1.0313956 -3.119421
5.5269103 -2.2103035 -3.273061
5.4288607 -2.2144432 -3.415431
5.3305693 -2.2210808 -3.5320411
5.2306213 -2.2310083 -3.6088009
5.1317968 -2.2431676 -3.661371
5.0291734 -2.2533975 -3.719471
4.9313297 -2.26772 -3.747231
4.8301492 -2.2790675 -3.7941909
4.7324419 -2.292336 -3.836421
4.6331444 -2.3052182 -3.873831
4.5341005 -2.3191233 -3.8995509
4.4337931 -2.3329146 -3.9210811
4.3354611 -2.3469698 -3.9493411
4.2375498 -2.3608677 -3.9783909
4.1361732 -2.3726416 -4.0224309
4.0381451 -2.3853528 -4.0641208
3.9390111 -2.3981183 -4.1023111
3.84006 -2.4122918 -4.1279311
3.7406917 -2.4262586 -4.1525011
3.64063 -2.4393024 -4.1881609
3.5431788 -2.4528437 -4.2187009
3.443382 -2.4658351 -4.2543311
3.3424892 -2.4790611 -4.2873812
3.2440512 -2.4914224 -4.3287711
3.1447964 -2.5065556 -4.340301
3.0473738 -2.5228367 -4.3336511
2.9484746 -2.5391283 -4.334641
2.8485799 -2.5539274 -4.3523512
2.7504056 -2.5688488 -4.3691711
2.650512 -2.5828886 -4.3907409
2.55232 -2.5979545 -4.409411
2.4525335 -2.6119673 -4.4281511
2.3536696 -2.6271398 -4.442071
2.2548378 -2.6422567 -4.4538012
2.1559558 -2.6560349 -4.4795508
2.0576363 -2.6689541 -4.519711
1.9569354 -2.681988 -4.5525408
1.8599538 -2.697217 -4.5721412
1.7589554 -2.7090116 -4.6181312
1.6593058 -2.722162 -4.6558409
1.5605917 -2.7373211 -4.6698809
1.4614398 -2.7529745 -4.6658711
1.3628072 -2.7719071 -4.6428709
1.2639935 -2.7906559 -4.6184411
1.1652423 -2.8104374 -4.580411
1.0673239 -2.8292773 -4.5412412
0.96736974 -2.852459 -4.4802909
0.87142456 -2.8706522 -4.4251609
0.77411592 -2.8925743 -4.3480811
0.68064541 -2.9131601 -4.2546611
-3.8439565 -0.020854414 -2.6251509
-3.9385767 -0.040700555 -2.5562911
-4.3980441 3.3829739 -1.6920609
-2.3940864 -6.4553032 3.5281689
-5.6755219 3.7659476 -1.439971
-1.8834928 7.2377954 -2.405741
-4.9539776 6.7471256 -6.891521
-4.0362329 -0.061128974 -2.4910309
-0.18177013 -3.2166882 -2.3644309
-0.27869681 -3.2393601 -2.2882509
-0.37719363 -3.2563374 -2.2752609
-0.47600424 -3.2726762 -2.2749209
-0.57499123 -3.2864301 -2.2702811
-0.67367148 -3.3026974 -2.2555909
-0.772726 -3.3176877 -2.252861
-0.87155288 -3.3336036 -2.252501
-0.97054565 -3.3494952 -2.266741
-1.0688912 -3.3654461 -2.2810409
-1.1668712 -3.3835766 -2.2704811
-1.2648718 -3.3981266 -2.2666409
-1.3626256 -3.4153204 -2.253371
-1.4606149 -3.4323692 -2.240721
-1.5616509 -3.4576056 -2.187151
-1.658814 -3.4767406 -2.133281
-1.7536737 -3.4959056 -2.077821
-1.8501866 -3.5160115 -2.012341
-1.9477355 -3.5377591 -1.948961
-2.0438733 -3.5569749 -1.895841
-2.1431625 -3.5802639 -1.8224109
-2.2321537 -3.6031771 -1.662341
-2.327986 -3.6336539 -1.576311
-2.4387081 -3.654947 -1.535251
-2.536134 -3.6704385 -1.506791
-2.6346896 -3.6863418 -1.4780411
-2.7327213 -3.703124 -1.449541
-2.8304136 -3.7206419 -1.407411
-2.928396 -3.7408688 -1.3676111
-3.0266237 -3.7638278 -1.329031
-3.1242816 -3.7876987 -1.262881
-3.2191827 -3.7922201 -1.253951
-3.3183215 -3.8223398 -1.1785311
-4.13942 -0.079497099 -2.4363711
-0.69818515 8.0326042 -3.0958409
-3.4459715 0.63376367 -2.6356311
-3.544126 0.61558509 -2.607631
-1.9864864 6.0160422 -2.030591
-2.4323099 5.6381478 -1.742901
0.85812604 -5.8966174 4.377049
-3.4426873 3.0826271 -1.470181
-4.9101515 0.92975956 -1.664381
-4.8122692 0.94921124 -1.728891
-3.241606 -2.8631597 2.9452591
-3.912863 2.2759438 -1.764961
-5.831274 1.6532719 -1.328011
-5.729867 1.6715605 -1.378831
-4.2371249 -0.098211944 -2.3975511
-6.0294957 1.6154982 -1.237821
-5.9316859 1.6329134 -1.279171
-6.1255875 1.59957 -1.193671
-4.0788517 3.2836843 -1.629691
-5.1718159 1.3255997 -1.530851
-6.1779242 2.4866037 -1.221971
-6.0772829 2.5048723 -1.300941
-4.3250184 -3.5526209 0.67759901
-4.047122 -2.6419871 2.839139
-0.92435199 6.9427056 -2.5751109
-2.3108034 6.7157221 -2.1475811
-3.7196972 -2.878468 2.7907491
-4.3375516 -0.11553538 -2.350431
-0.13547717 7.0714984 -2.728971
-3.6450932 0.59847975 -2.560421
-3.8080835 3.4728708 -1.517801
-5.3389964 2.3405428 -1.689021
-3.7369545 3.041487 -1.593161
-3.5657668 0.75471252 -2.5552909
-2.0876 1.0102955 -2.767241
-1.9878138 1.0248852 -2.7873609
-3.861876 0.69758749 -2.3784211
-5.5378637 1.1058314 -1.244621
-4.4327936 -0.13497388 -2.318691
5.7044187 -2.0474401 -3.1604509
5.606648 -2.0583289 -3.2259209
5.5104012 -2.0692496 -3.292901
5.4002466 -2.0695758 -3.474251
5.3044314 -2.0771475 -3.5804009
5.2065735 -2.0881209 -3.645771
5.1093783 -2.1007919 -3.700681
5.0107274 -2.1132171 -3.7422011
4.9102268 -2.1269379 -3.765861
4.8097892 -2.1399703 -3.8007309
4.7086768 -2.1518135 -3.846771
4.6107411 -2.1648548 -3.8882711
4.5096817 -2.1775398 -3.9212911
4.413507 -2.1939669 -3.943541
4.3136783 -2.2095661 -3.954421
4.2140045 -2.2226291 -3.9622209
4.1136327 -2.2356308 -3.9966309
4.0146604 -2.2485833 -4.034821
3.9154727 -2.2612655 -4.0739708
3.8158212 -2.274467 -4.1101208
3.7179337 -2.2882597 -4.139431
3.6195579 -2.3020387 -4.1669812
3.5206873 -2.3156328 -4.1927509
3.4212816 -2.3294938 -4.2176909
3.3208013 -2.3428974 -4.2508011
3.2209306 -2.3565691 -4.285841
3.1219363 -2.3704057 -4.3119111
3.0240526 -2.3845417 -4.3299208
2.9262047 -2.4005661 -4.3348508
2.8275688 -2.4158342 -4.3463912
2.7263827 -2.4302807 -4.362061
2.6299181 -2.4450026 -4.3917809
2.5295591 -2.4596829 -4.4212909
2.4300206 -2.4725122 -4.4444108
2.3305407 -2.487438 -4.4528708
2.2335117 -2.5036464 -4.4612112
2.1340194 -2.5164478 -4.494761
2.0331786 -2.5291085 -4.5269809
1.9345005 -2.5432799 -4.5536609
1.8378303 -2.5567684 -4.5989609
1.7365018 -2.5683322 -4.645381
1.636603 -2.5822108 -4.668951
1.5371296 -2.5959001 -4.6915112
1.4382288 -2.6124353 -4.6957211
1.3394612 -2.6285341 -4.693841
1.2401067 -2.6478949 -4.673111
1.1416017 -2.6660988 -4.6463308
1.0427904 -2.6857581 -4.6075811
0.94429195 -2.7066238 -4.5565209
0.84820068 -2.7249818 -4.501121
0.75080895 -2.7470186 -4.4242711
0.65364748 -2.7690387 -4.3472109
-4.5325799 -0.15320832 -2.2702911
-3.6454279 4.9835148 -1.113681
-4.2998037 3.3979263 -1.6666811
-4.0536499 3.7289083 -1.5495009
-5.7745147 3.7486489 -1.386371
-4.6294222 -0.17219156 -2.2292011
-4.7277803 -0.19151604 -2.1783509
-0.65236831 7.1398807 -2.725801
-4.8234072 -0.21223038 -2.1116309
-0.30297887 -3.0918019 -2.3772211
-0.40139216 -3.1106493 -2.338861
-0.49976981 -3.1267166 -2.3386011
-0.59875423 -3.139529 -2.330451
-0.69736081 -3.1572831 -2.3193209
-0.79667199 -3.1728909 -2.317961
-0.89583117 -3.1865814 -2.328011
-0.99543893 -3.1982064 -2.3486309
-1.0928243 -3.2182376 -2.3568511
-1.1910952 -3.233701 -2.355701
-1.2894003 -3.2527843 -2.3464811
-1.3872509 -3.2738407 -2.297281
-1.4855072 -3.2907393 -2.2838809
-1.5858364 -3.31232 -2.2509911
-1.6801758 -3.3281226 -2.205261
-1.7783644 -3.3523512 -2.1177909
-1.8742672 -3.3734331 -2.0389709
-1.9730684 -3.3955207 -1.977121
-2.0715711 -3.4173186 -1.914711
-2.1656415 -3.4339895 -1.858241
-2.2527697 -3.4605465 -1.791931
-2.3656466 -3.4835777 -1.712961
-2.4633994 -3.4982202 -1.697801
-2.5622232 -3.5133255 -1.683421
-2.660177 -3.5288093 -1.656021
-2.7577963 -3.5425696 -1.626821
-2.8567519 -3.5717995 -1.583061
-2.95521 -3.5931754 -1.546441
-3.051784 -3.6045225 -1.514021
-3.1542141 -3.6290781 -1.4589109
-3.2482471 -3.6507146 -1.398051
-3.3444636 -3.6678977 -1.3388309
-3.4390056 -3.6866381 -1.269781
-4.9267931 -0.23164254 -2.029001
-0.89712286 8.000185 -2.971061
-1.0913574 7.968307 -2.852041
-0.82546389 6.9613037 -2.5970311
-1.1225336 7.5129232 -2.796571
-0.45476949 8.3706446 -3.3306711
-2.3324809 5.6596293 -1.773561
-4.3995533 -3.4974718 0.60916901
-3.6388204 3.0555112 -1.553641
-2.655509 5.7484903 -1.748311
0.062503465 8.3039436 -3.7004011
-3.8148398 2.2908616 -1.7541209
-3.6180634 2.3190918 -1.704161
-2.9811063 -3.9589696 1.296629
-3.7159986 2.3061113 -1.733781
-2.5563366 5.765615 -1.785201
-3.5901008 0.89543855 -2.4956009
-2.934808 -3.2387197 2.655319
-2.3112307 -2.8092127 3.049669
-2.5806308 5.9117131 -1.848881
-2.6305771 5.6036062 -1.681911
0.96030194 -5.8762121 4.3955588
-2.7347779 -3.8901582 1.500949
-3.5951581 5.291369 -1.166151
-1.0227323 6.9279332 -2.559931
-1.8126869 6.7981601 -2.407321
-4.2899961 -2.7003899 2.627799
-2.5064113 -3.5329158 2.342469
-5.6361413 1.087026 -1.177321
-3.9297197 1.1196711 -2.2277911
-2.6565952 6.3550882 -1.904181
-3.6472275 4.3839512 -1.056231
-5.5515919 3.638262 -1.504621
-2.4806709 0.94388807 -2.797421
-2.1840951 0.98994982 -2.7590711
-2.6785111 0.91093326 -2.785161
-0.25032938 0.31038082 -3.2501309
-4.9494071 1.212702 -1.554081
-4.7343006 6.0495014 -6.7614312
5.6814728 -1.9033356 -3.2127211
5.5831156 -1.9144185 -3.277061
5.4833083 -1.9233112 -3.3659511
5.3755922 -1.9279794 -3.497911
5.2815437 -1.9366077 -3.5932209
5.1824608 -1.946368 -3.6702111
5.0867195 -1.9580488 -3.7283411
4.987895 -1.9710385 -3.768661
4.8873758 -1.9854102 -3.7921109
4.7876806 -1.9982743 -3.828481
4.6873488 -2.0106318 -3.8761909
4.5861926 -2.0221376 -3.9234509
4.4878063 -2.0352705 -3.9637611
4.3933549 -2.0488329 -3.9981411
4.2934089 -2.067528 -3.9913311
4.1929054 -2.0842359 -3.9697609
4.0914087 -2.0974259 -3.9852509
3.99068 -2.1100283 -4.018631
3.8926249 -2.12321 -4.060421
3.7928119 -2.1350093 -4.1099811
3.6947682 -2.1483915 -4.151361
3.5968971 -2.1633763 -4.1669712
3.4962122 -2.1770859 -4.1869111
3.3975134 -2.1920197 -4.2010608
3.2984693 -2.2061172 -4.2265711
3.1999123 -2.2199655 -4.2534609
3.1009595 -2.233937 -4.2801108
3.0014577 -2.2481475 -4.3034911
2.9027073 -2.2621174 -4.3300409
2.8032761 -2.2753041 -4.3664408
2.7035611 -2.2881715 -4.402421
2.6038754 -2.29988 -4.4527211
2.5051448 -2.314039 -4.4790111
2.4066017 -2.3294444 -4.4943609
2.3071404 -2.3441041 -4.504221
2.2089903 -2.3614819 -4.5091109
2.111239 -2.3759418 -4.520021
2.0097528 -2.3881073 -4.5526509
1.9110996 -2.4001989 -4.604321
1.8138955 -2.4132559 -4.6613011
1.7145596 -2.4282601 -4.673841
1.6145946 -2.441977 -4.6985812
1.5145682 -2.456392 -4.708941
1.4154305 -2.4706662 -4.7155409
1.316667 -2.4885161 -4.7073612
1.2179397 -2.5042946 -4.7056208
1.1188427 -2.5239387 -4.6844912
1.0207635 -2.540293 -4.6685309
0.92077768 -2.5625076 -4.6214209
0.82301742 -2.582345 -4.568481
0.72669554 -2.6021874 -4.5015812
0.63037169 -2.6232958 -4.4234209
0.5318321 -2.6476102 -4.3355012
-2.7547774 5.7316537 -1.7107511
-4.2015238 3.412885 -1.639851
-4.5428162 3.657912 -1.671491
1.9828422 -5.5038576 4.2628388
-1.9804088 7.2211299 -2.3528509
-2.9973781 1.0012636 -2.6976111
0.48435178 -5.8922548 4.2367392
1.3049005 -5.8702416 4.3371291
-0.32721964 -2.947062 -2.4279809
-0.42526528 -2.962925 -2.427851
-0.52334189 -2.9824278 -2.3895209
-0.62214696 -2.9982896 -2.3893011
-0.72147715 -3.0128169 -2.3694711
-0.82069683 -3.0274687 -2.3821509
-0.91989255 -3.0406084 -2.4058809
-1.0192372 -3.0536397 -2.4292009
-1.1166216 -3.0727186 -2.435621
-1.2146019 -3.0870123 -2.4316609
-1.31363 -3.107091 -2.4250309
-1.4116893 -3.1256797 -2.399941
-1.5104105 -3.1453955 -2.362941
-1.609077 -3.1660955 -2.313031
-1.7052662 -3.1847928 -2.2588711
-1.8008106 -3.2025783 -2.2027609
-1.8969816 -3.2210705 -2.135761
-1.9952502 -3.2425575 -2.0731909
-2.097563 -3.2701526 -2.018841
-2.1957967 -3.2911584 -1.968461
-2.2939415 -3.3103578 -1.930361
-2.3911622 -3.3240755 -1.914211
-2.4895043 -3.3401778 -1.8874511
-2.587976 -3.3646638 -1.839421
-2.6863198 -3.3866992 -1.803321
-2.7846117 -3.4031177 -1.789861
-2.8833373 -3.4238267 -1.753161
-2.9812641 -3.4388409 -1.7249711
-3.0801713 -3.4630716 -1.677061
-3.1770806 -3.4782481 -1.6224509
-3.2709858 -3.485285 -1.576861
-3.3696988 -3.5174532 -1.476661
-3.4680436 -3.5440855 -1.384221
-3.5650001 -3.5665698 -1.302511
-5.8814058 1.3417945 -1.166271
-1.2879131 7.9360619 -2.711611
3.6176367 2.081378 -2.773241
-1.6139883 7.4333634 -2.5376611
-5.145071 7.2952805 -6.8805609
-1.3190104 1.2787343 -2.8101611
-4.1406641 -3.1643109 2.179889
-2.1359484 5.692275 -1.8003711
-3.2737887 4.5935507 -1.011551
-1.3515816 5.8540692 -1.7314709
-0.13507865 8.2720413 -3.546751
-3.9525456 -2.640595 2.8723991
-3.724026 4.2203231 -1.133221
-1.5220885 6.8471222 -2.479301
-3.6660657 3.19608 -1.533501
-5.6394095 0.74885124 3.572459
-6.0025578 2.6662486 -1.288711
-5.9038463 2.6828957 -1.328751
0.16601314 8.3227682 -3.7827909
-0.97244525 7.2379165 -2.738291
-3.7129309 2.896966 -1.593411
0.13452758 7.8665247 -3.4957409
-4.8354354 5.4460511 -6.241971
-3.6928172 5.275496 -1.110481
-0.23345767 7.0586123 -2.7125111
-1.9120755 6.781507 -2.3710511
-2.1883838 7.1909232 -2.2011809
-2.2858078 7.1740751 -2.1360011
-3.6168025 2.910166 -1.560321
-4.5000815 2.7768495 -1.7943209
-3.7403324 0.57813048 -2.516341
-4.1241159 1.0803771 -2.109911
-4.0038366 3.4434867 -1.5816211
-4.7780728 1.3938348 -1.671121
-2.382062 0.96092367 -2.7999611
-2.2838206 0.97881216 -2.7813411
-2.9216986 1.159045 -2.660851
-4.7806282 6.9176421 -7.0397711
-5.0425215 2.3916507 -1.761541
5.7588377 -1.7498028 -3.188411
5.6598072 -1.7618124 -3.2385609
5.5546436 -1.7700043 -3.3219011
5.4597125 -1.7794509 -3.4171209
5.3588171 -1.7883136 -3.504601
5.2578907 -1.7973028 -3.5919311
5.1596899 -1.8068826 -3.670841
5.0607781 -1.8176587 -3.7355609
4.9629545 -1.8302567 -3.776921
4.8614535 -1.8436701 -3.8101311
4.7622504 -1.8568308 -3.8483009
4.6632276 -1.8687587 -3.8997109
4.5626621 -1.8798368 -3.9610009
4.4649 -1.8926275 -4.003561
4.366497 -1.9064919 -4.0302911
4.2643785 -1.9208028 -4.0457711
4.1661396 -1.9355726 -4.046741
4.0686893 -1.95366 -4.0528212
3.9674938 -1.9647874 -4.083591
3.869947 -1.979964 -4.1132312
3.7705653 -1.9921204 -4.1646309
3.6706576 -2.0038335 -4.2136812
3.5704727 -2.0158439 -4.248281
3.4732814 -2.0334547 -4.2540612
3.3731637 -2.04755 -4.260941
3.2747273 -2.063951 -4.2629409
3.176723 -2.0786026 -4.2926011
3.0778782 -2.092618 -4.3186312
2.9796121 -2.1081107 -4.3334112
2.8790729 -2.1200557 -4.3649211
2.7774975 -2.1324887 -4.4120908
2.680351 -2.1450806 -4.4545808
2.582104 -2.1592238 -4.4834309
2.4824955 -2.1731474 -4.5057411
2.3850253 -2.1902764 -4.5114608
2.2841663 -2.2031422 -4.5290108
2.1856668 -2.2183785 -4.5431409
2.0895782 -2.2350252 -4.5622511
1.9881425 -2.2455933 -4.607451
1.8876901 -2.2553377 -4.682621
1.789252 -2.2711515 -4.6986208
1.6914018 -2.2868419 -4.6997309
1.5908883 -2.3004832 -4.7204609
1.4914466 -2.3159702 -4.7354512
1.3930812 -2.3337772 -4.7255311
1.2944694 -2.3493249 -4.7225709
1.1940093 -2.3669472 -4.714601
1.0964613 -2.3808382 -4.7202911
0.99755657 -2.3982446 -4.7085009
0.89853704 -2.4168437 -4.6828709
0.80017757 -2.4373734 -4.631681
0.70021701 -2.4613454 -4.5581212
0.60650873 -2.4781923 -4.500051
0.50825787 -2.5019646 -4.411921
-5.8085532 1.5054058 -1.277131
-4.1037283 3.4272604 -1.612121
-4.6404524 3.6428521 -1.685521
-5.4586258 0.54897118 2.538059
-2.0861697 7.2061 -2.2734909
-4.8395553 6.0360708 -6.7466712
-4.6147318 1.0819471 4.0366888
-4.5065351 1.5887117 -1.745821
-0.35214934 -2.7945845 -2.580261
-0.44941401 -2.8169761 -2.503911
-0.54731637 -2.8356614 -2.465951
-0.64553487 -2.8542044 -2.4401309
-0.74590635 -2.8657377 -2.444891
-0.84405696 -2.8836222 -2.4487109
-0.94466305 -2.8938665 -2.4811611
-1.0425014 -2.9105272 -2.4971609
-1.1407075 -2.9255042 -2.509681
-1.2386991 -2.9444568 -2.500931
-1.3367814 -2.9616218 -2.4878011
-1.4340634 -2.9784067 -2.458801
-1.5319929 -2.9992223 -2.4091811
-1.6307774 -3.0198798 -2.359551
-1.7294275 -3.0407491 -2.310451
-1.8257242 -3.058512 -2.2543609
-1.9246266 -3.0784898 -2.218631
-2.0234725 -3.0971625 -2.1943009
-2.1214168 -3.1080384 -2.1881709
-2.2209368 -3.1244383 -2.189451
-2.3198998 -3.1399405 -2.175951
-2.4176822 -3.1643071 -2.1287911
-2.5162373 -3.1813645 -2.1029811
-2.614486 -3.1995883 -2.077991
-2.7139595 -3.2143614 -2.0773909
-2.8111377 -3.2482305 -2.007901
-2.908982 -3.2515576 -2.0259011
-3.0078776 -3.2704914 -1.988301
-3.1039958 -3.2870817 -1.934371
-3.19962 -3.3117747 -1.819151
-3.2959962 -3.332233 -1.741371
-3.3974712 -3.3639679 -1.645371
-3.4931653 -3.3887327 -1.5427409
-3.5848899 -3.4018025 -1.4712811
2.6043622 2.0694196 -2.9205811
-1.4944761 1.1075783 -2.850641
-4.1579757 2.5339763 -1.765921
-2.1130106 6.748467 -2.261971
-5.2414989 7.2812228 -6.7817211
-3.2923255 0.94837248 -2.6181409
-4.3538523 0.60508657 -2.125931
-4.4463792 3.6726797 -1.664681
-3.5288272 -2.8736095 2.8537691
-3.8786662 -2.5224633 2.976119
-3.3726604 4.5777893 -1.009721
-4.7229362 2.2962704 -1.777771
-5.4520802 3.6555424 -1.542331
-1.7348443 7.5630541 -2.458611
-1.831971 7.5467596 -2.3932409
-3.8389325 0.55816013 -2.440731
-3.9344933 0.53664631 -2.361201
-4.0359716 0.51976377 -2.3155811
-4.1313987 0.5005998 -2.285311
-4.2324224 0.48378909 -2.2385111
-4.3311071 0.46512157 -2.1885109
-4.4295592 0.44638962 -2.1375811
-4.5272336 0.42697102 -2.085391
-3.7622936 3.1835723 -1.575431
-4.1565418 0.64170367 -2.2263811
-1.8376219 6.9446626 -2.4221511
-0.33213592 7.0427809 -2.686491
-1.1217003 6.9112458 -2.5478711
-4.6173806 -3.3912601 0.61950898
-4.0596619 0.66038913 -2.2661209
-3.4481189 4.4159932 -0.993761
-5.6011515 3.3312294 -1.459721
-4.6222219 0.40676278 -2.0422909
-6.2026005 2.6305151 -1.155951
-3.041434 1.2792947 -2.5677111
-4.297843 0.90220648 -2.058471
-2.5790408 0.92719412 -2.795701
-3.240654 1.2469313 -2.5215411
-4.3542557 2.5036988 -1.779821
-4.4531984 0.58682072 -2.0761809
-2.8765066 5.8623199 -1.720951
5.7354021 -1.6069499 -3.2265711
5.6382289 -1.6189895 -3.2801909
5.5378222 -1.6287669 -3.3557711
5.4378304 -1.6376487 -3.444401
5.3328109 -1.6470022 -3.5257909
5.2379675 -1.6582781 -3.583621
5.1350112 -1.6692188 -3.6546309
5.0362072 -1.6798458 -3.7192011
4.9377651 -1.6914787 -3.7719409
4.8398089 -1.7037535 -3.8126609
4.7404876 -1.7168016 -3.850281
4.6424041 -1.7296129 -3.891021
4.5412016 -1.7412071 -3.9511909
4.4415326 -1.753085 -4.0015612
4.3393154 -1.7664499 -4.0434408
4.2435646 -1.7801169 -4.0666108
4.1424055 -1.7936482 -4.097971
4.0446658 -1.8076706 -4.1266608
3.9436328 -1.820271 -4.1612811
3.8407347 -1.8301089 -4.2084608
3.7457395 -1.8463087 -4.2380509
3.6487575 -1.8615985 -4.2694211
3.5478008 -1.8733361 -4.3020811
3.4490418 -1.8885322 -4.3150611
3.3496313 -1.9030015 -4.325491
3.252192 -1.9207733 -4.3323712
3.1520774 -1.932651 -4.3653908
3.0531087 -1.9465846 -4.390801
2.9544432 -1.9618573 -4.4040208
2.85778 -1.9801843 -4.4134612
2.7582829 -1.992764 -4.436511
2.65734 -2.0050361 -4.467381
2.5586348 -2.0191002 -4.494051
2.460536 -2.034435 -4.508811
2.3615527 -2.0495555 -4.5211411
2.2614501 -2.0624032 -4.556251
2.1625297 -2.0752356 -4.6059308
2.0659463 -2.0971344 -4.6086211
1.9654145 -2.1050992 -4.647491
1.8643987 -2.1141629 -4.7076211
1.7669238 -2.1296015 -4.7252212
1.6673028 -2.145299 -4.7225709
1.5678388 -2.1594932 -4.7492509
1.4686595 -2.174655 -4.7619009
1.3697687 -2.190743 -4.7605009
1.2707741 -2.2070701 -4.7603512
1.1719658 -2.22598 -4.740201
1.0731719 -2.2404428 -4.7480812
0.97333229 -2.2585948 -4.7387609
0.87519342 -2.2750192 -4.722661
0.77659893 -2.2943206 -4.683691
0.68037391 -2.3133678 -4.6283011
0.58191824 -2.3360388 -4.5532708
0.48626992 -2.3553391 -4.4861908
0.38834316 -2.3794956 -4.3991208
-3.8393192 1.8455496 -1.837471
-3.7425506 1.8651285 -1.869141
-4.7382965 3.6272545 -1.6868711
-4.6281013 -2.5715652 2.4098189
-5.158299 0.39850003 2.5749691
-3.3141234 1.0879815 -2.5665309
-5.0707965 4.9807029 -5.6021109
-0.3759281 -2.6484146 -2.656631
-0.47324866 -2.6714125 -2.5677011
-0.57102013 -2.6907959 -2.529351
-0.66940856 -2.7083938 -2.5039711
-0.76975083 -2.7199836 -2.5078211
-0.86854637 -2.7364817 -2.523931
-0.96914411 -2.7465222 -2.5547309
-1.0669605 -2.7612755 -2.5808811
-1.1645466 -2.7780583 -2.5977011
-1.2630763 -2.7993031 -2.579581
-1.3614419 -2.8155105 -2.550421
-1.458388 -2.836525 -2.4999411
-1.5561422 -2.8564017 -2.448751
-1.6524552 -2.8739343 -2.405061
-1.7520845 -2.8947561 -2.3568411
-1.850756 -2.9128039 -2.331341
-1.9495993 -2.9262519 -2.3258209
-2.0485864 -2.9485717 -2.310111
-2.1473081 -2.9618285 -2.305661
-2.2463322 -2.9773302 -2.305661
-2.3452487 -2.9919136 -2.3181911
-2.4442813 -3.0051889 -2.329191
-2.5436976 -3.0146983 -2.3502409
-2.6411567 -3.0340726 -2.3398211
-2.7393301 -3.0545626 -2.330291
-2.8375905 -3.0689411 -2.3286409
-2.9360559 -3.0909758 -2.2801909
-3.0324528 -3.1121969 -2.215451
-3.1301262 -3.133286 -2.152401
-3.2270303 -3.1541824 -2.0751109
-3.3212278 -3.1686461 -1.993441
-3.4189141 -3.1917624 -1.902781
-3.5173914 -3.2160869 -1.793611
-3.6128571 -3.246769 -1.667681
-3.7097967 -3.2720449 -1.5502011
-3.8059711 -3.2846348 -1.467321
-3.6244071 4.2378221 -1.096151
-6.102838 2.6486444 -1.236091
-3.46047 1.3511274 -2.3700111
-3.7654133 2.592406 -1.676581
0.38325739 8.363554 -3.846071
-0.81998932 8.1621447 -3.0318911
-5.1648917 2.5190766 -1.739361
-4.7842484 -3.1722982 1.088369
-3.2146106 -2.9641802 2.860389
-3.4714153 4.5622497 -1.021891
-4.9457064 0.84485221 3.742269
-4.5500164 0.5672338 -2.0233009
-1.9329019 -6.318099 3.7500789
-4.7230477 0.38876849 -1.9824311
-4.8213649 0.36924797 -1.918811
-4.9154577 0.34837168 -1.862421
-0.18347369 8.5636606 -3.598701
-3.3720262 5.7785726 -1.369861
-0.42928362 7.6261659 -3.0461409
-2.2822115 5.9645467 -1.969811
-1.8667649 -2.7945321 3.0199089
-3.5252359 4.2544403 -1.0572211
1.2908005 1.4267207 -3.1041811
1.4807552 -5.7301168 4.4552188
-0.43115813 7.024262 -2.663841
-3.7555604 -3.064033 2.5808091
-4.7120757 -2.5450959 2.3583789
-3.9112859 2.8670681 -1.665051
-3.2494268 5.0483613 -1.246291
-4.4196539 1.0247599 -1.946481
-4.7186565 2.8877215 -1.769421
-5.141397 2.374573 -1.738331
-4.2750654 3.2543283 -1.671981
-2.5321326 5.6189961 -1.708961
-2.2351441 6.8795748 -2.1967709
-3.3372128 1.2276895 -2.491991
-1.7613455 7.1080065 -2.4701509
-6.2063203 0.75230944 3.3718989
5.8078489 -1.4542673 -3.184041
5.7135339 -1.464983 -3.2540009
5.6126118 -1.476108 -3.315551
5.5114079 -1.4861534 -3.3896511
5.4153509 -1.4967401 -3.4586411
5.3163958 -1.5073712 -3.5234311
5.213809 -1.5189823 -3.5816109
5.1176739 -1.5303508 -3.6269109
5.0113654 -1.5443535 -3.6881609
4.9150758 -1.5541066 -3.746031
4.8149104 -1.567005 -3.794831
4.7164893 -1.5790901 -3.8349209
4.6163449 -1.5918026 -3.8834109
4.516459 -1.6040391 -3.933141
4.4169149 -1.6161907 -3.9832709
4.3204751 -1.6283872 -4.0157309
4.2216516 -1.6424701 -4.0420408
4.1204457 -1.656343 -4.0745811
4.0238748 -1.6689856 -4.1179109
3.9220707 -1.6805539 -4.1767912
3.8226655 -1.692562 -4.2277608
3.722074 -1.7040495 -4.276031
3.6249318 -1.7187772 -4.306561
3.5250294 -1.7326968 -4.329041
3.4265351 -1.7479626 -4.3444309
3.327034 -1.761606 -4.3670411
3.2287068 -1.7773516 -4.3831811
3.1290312 -1.7908503 -4.4055309
3.030385 -1.8051583 -4.4316411
2.9320669 -1.8205783 -4.4479408
2.8329747 -1.8355238 -4.4595408
2.7351196 -1.8516302 -4.462091
2.6355679 -1.8664862 -4.4724212
2.5360479 -1.8800718 -4.4942508
2.4368412 -1.894357 -4.5188708
2.3378136 -1.9082392 -4.5440912
2.2401936 -1.9210989 -4.6010509
2.1396446 -1.9324074 -4.6474609
2.0401661 -1.9473432 -4.6586409
1.940347 -1.9621708 -4.6680708
1.8407627 -1.9751592 -4.7043509
1.7425864 -1.9893016 -4.7330809
1.6429969 -2.0035357 -4.7555909
1.5443531 -2.0183697 -4.7707911
1.4452512 -2.0335093 -4.7829709
1.3467146 -2.0497234 -4.784821
1.2480426 -2.0655944 -4.7840509
1.149315 -2.0816262 -4.7818608
1.0503953 -2.0980427 -4.7842011
0.95105541 -2.1155789 -4.7740312
0.85148013 -2.1341851 -4.750401
0.7532748 -2.1519158 -4.7220211
0.65556401 -2.1721301 -4.6698208
0.55941701 -2.1923091 -4.6030712
0.46198529 -2.2146053 -4.5266209
